-2.1322630250 1.4860626068 1.4504721571
-2.0621582626 1.4391804368 1.6069188804
-2.3495814955 1.6533514167 0.8153065478
-2.2201400642 1.5483974711 1.2607152532
-1.9886786359 1.3941130680 1.8096749922
-1.9516085942 1.3581371529 1.4001994887
-2.0483783175 1.4261763829 1.3762576929
-2.0940240240 1.4586722207 1.4044966259
-1.8751402146 1.3032099210 1.3094342725
-1.9753827870 1.3740826257 1.3101138844
-1.9685402863 1.3693491283 1.3267253351
-1.9799518867 1.3774732546 1.3337845954
-1.8547448082 1.3008950670 1.7726237018
-2.2153455026 1.5476305762 1.0672323021
-2.1924229953 1.5298370981 1.1393620709
-2.3454369798 1.6552505534 0.7115375673
-2.2453753281 1.5686202129 1.1026517751
-2.1060523701 1.4678729422 1.4780536589
-1.8088189400 1.2556515817 1.2277831443
-1.8316425020 1.2719001867 1.2419006755
-2.0485461733 1.4451545692 0.5545203832
-1.9571720927 1.3612675142 1.3195470972
-2.0019774912 1.3927745397 1.2431385140
-2.1677645965 1.5173697181 0.9032064171
-1.9163441672 1.3367669958 1.5703987801
-2.0440689640 1.4229902526 1.3519279397
-2.0299568682 1.4132561765 1.3859461716
-1.9292538811 1.3492277638 1.6926077450
-2.2589831856 1.5852898251 0.8610711879
-1.7193592405 1.2259205641 2.0892439573
-2.2690424644 1.5903416751 0.9263221863
-1.9261844971 1.3502672691 1.7832956951
-2.1383261479 1.4898937429 1.3656822920
-1.9092370898 1.3409287668 1.8408537896
-2.1283488074 1.4831320517 1.4254285812
-2.2572864828 1.5771250631 1.1082978891
-2.2392661608 1.5626610297 1.2057723293
-2.1363087038 1.4891877453 1.4748689549
-1.8319833270 1.2998747988 2.0698267781
-2.1096816635 1.4700313720 1.4357201849
-1.8680856990 1.3009566647 0.8638289554
-1.7717540130 1.2423510783 1.7269893991
-1.8973766917 1.3238230301 1.5784095458
-2.0228655323 1.4084334341 1.4026513477
-2.0528112544 1.4295524833 1.3999611396
-2.2521451880 1.5776571221 0.9392957385
-2.0160603275 1.4112987051 1.7586352388
-1.5701627859 1.1223498149 2.0141662092
-2.2863532290 1.6219980526 0.5334721458
-2.2329082242 1.5606610653 1.0542233218
-2.2273781194 1.5562752163 1.0724175587
-1.7691041541 1.2620286668 2.1379587315
-2.1402143358 1.4922505354 1.4993504075
-1.7227832859 1.1945989306 1.1930451153
-2.1212027762 1.4782744716 1.4424697071
-1.7493592763 1.2477038170 2.1182299890
-1.8005764473 1.2504004181 1.2811577385
-1.6150435842 1.1177675439 1.1071568489
-1.8708520503 1.3000513197 1.2854546001
-1.9346033611 1.3452784603 1.3047188670
-2.2367539886 1.5816464587 0.5954681581
-1.9515545352 1.3604085573 1.5283727793
-1.9272966867 1.3471684704 1.6672886279
-2.2726195676 1.6002300288 0.7450188866
-2.0950598009 1.4601356030 1.4699081924
-1.7268409104 1.2363776470 2.1736663331
-1.9588364968 1.3653296961 0.9242409665
-1.9980310083 1.3901945395 1.1787389080
-2.0075015877 1.3973626636 1.3708356875
-2.0003838100 1.3924941976 1.3876433198
-2.0230928957 1.4086651211 1.4020320477
-2.0879539515 1.4540928687 1.3132634516
-2.0601890458 1.4347049710 1.3822063040
-2.0530374082 1.4297849813 1.3993353311
-2.0758053185 1.4459961402 1.4135851530
-2.0871892737 1.4541017196 1.4207100639
-2.0798656099 1.4490924301 1.4380038674
-2.1058411532 1.4672072885 1.4104274269
-1.7917551315 1.2722803822 2.0561179163
-2.1400802337 1.4915840267 1.4315932691
-1.7279146348 1.1984849117 1.2148686645
-1.9004478954 1.3209909064 1.2833149512
-1.8937038330 1.3163511159 1.2994694329
-1.9164720975 1.3325626513 1.3137182603
-2.0275159529 1.4113027504 1.1746686358
-2.2400423209 1.5851904809 0.5769213011
-2.2662959161 1.5866607858 0.9857758721
-2.1026204745 1.4653113930 1.4522663059
-2.2269935150 1.5536246961 1.2411349731
-2.1555388750 1.5027837734 1.4633309478
-1.8303980926 1.2803738508 0.6522706995
-2.1030463084 1.4707390001 0.8935411110
-2.1983532003 1.5499236643 0.6595218868
-1.8012512347 1.2711233799 1.9154730646
-2.2251764029 1.5567760630 0.9878153133
-2.1059317519 1.4673049766 1.4101682073
-2.0532837673 1.4316950174 1.5310793128
-2.1287585194 1.4835569077 1.4242767245
-2.2917501025 1.6037330578 1.0388540881
-2.1367329140 1.4896198671 1.4737136296
-2.3971130734 1.6970357103 0.6460148354
-2.1250721184 1.4821383927 1.5337647336
-1.4725638048 1.0165163341 1.0356600169
-1.9644923842 1.3902203528 0.4385037349
-1.8301928938 1.2713475157 1.2793747289
-1.8529030818 1.2875196159 1.2937603943
-2.1419820708 1.5076017872 0.6779130893
-1.9393282526 1.3488691018 1.3277184300
-1.9872927920 1.3827180533 1.3157616737
-1.6371933689 1.1746004058 2.1327215202
-2.1633038428 1.5090030622 1.1437452565
-2.0987112348 1.4623554127 1.4274456930
-2.1214802323 1.4785677429 1.4416924449
-2.1328647310 1.4866739079 1.4488158208
-2.1442492297 1.4947800730 1.4559391967
-1.9894440082 1.3947833460 1.8080944688
-2.0816438906 1.4594473405 0.7689445325
-1.9804707508 1.3780141286 1.3323224877
-2.0616188172 1.4354590352 1.2343578417
-2.0346295576 1.4169451966 1.4087196860
-2.1027612065 1.4654626789 1.4518736409
-2.1288493524 1.4836567769 1.4240145134
-1.8732154266 1.3217354990 1.9543291176
-2.0337454186 1.4167641890 1.0768140662
-2.2634317715 1.5977355141 0.6617946211
-2.2360060969 1.5715035806 0.7901693468
-1.8996515044 1.3289426633 1.6908159266
-2.0532639979 1.4300307090 1.3986931126
-1.7916808835 1.2654920370 1.9306986883
-2.0687426257 1.4412557728 1.4301636848
-2.1329580305 1.4867766785 1.4485494792
-1.7914533283 1.2436258448 1.2347609131
-1.7129988112 1.1977399794 1.6109120650
-2.0191541871 1.4057612804 1.3771972239
-1.9974762114 1.3910141457 1.4277030629
-2.2283627756 1.5609166687 0.9274321889
-2.0904066842 1.4561831369 1.3782225927
-2.1180437531 1.4766225412 1.4835171344
-2.0446787387 1.4236462427 1.3501640142
-2.1319005790 1.4856330877 1.3814700725
-2.0680222603 1.4426821998 1.5627285522
-2.1369698424 1.4898796300 1.4730467763
-2.2605838396 1.5918360042 0.7393293326
-2.0875565626 1.4545065997 1.4196613240
-1.9253402830 1.3489688843 1.7566094968
-2.1290336638 1.4838663389 1.4234742945
-1.6154210465 1.1181873602 1.1060612798
-1.7067381497 1.1832064978 1.1624659580
-1.8985856737 1.3201559409 1.3217881158
-1.9395901075 1.3491636629 1.3269636034
-1.9578601834 1.3620091263 1.3175788229
-1.9851324652 1.3815932645 1.3554445079
-1.8843494476 1.3166151425 1.6332099595
-2.1633822517 1.5098017447 1.1013758965
-2.0802848787 1.4495525944 1.4368231636
-1.9342895787 1.3545646564 1.7401082751
-2.3355717041 1.6529840791 0.6254167751
-2.0489831443 1.4295788162 1.5719685486
-2.2218945430 1.5503718819 1.2156341162
-2.1257096799 1.4819017578 1.4655819255
-1.8333947240 1.2982221141 2.0174347718
-2.3274363870 1.6338509726 0.9070382231
-2.3863985899 1.6861502827 0.7026446331
-1.6891462839 1.1708463582 1.1702041049
-1.8551695001 1.2889108369 1.2540013851
-1.8599328142 1.2924605199 1.2769996036
-2.1397763261 1.4919156515 1.1720867570
-2.0534908819 1.4302899031 1.3980345022
-1.6902128013 1.2064709685 2.0826952241
-2.0273324561 1.4162082743 1.6477407746
-2.3378588836 1.6454357378 0.8079318071
-1.8834507092 1.3279829844 1.9375041921
-1.8538588539 1.3116584633 2.0107767142
-1.7701113524 1.2628598429 2.1363208232
-1.7753069958 1.2320665624 1.2045275856
-1.7054891771 1.1901672791 1.5399277915
-1.9100300601 1.3283453931 1.3287231261
-1.9781694830 1.3768717345 1.3718548398
-2.0562988496 1.4320028414 1.3566101033
-2.0349523354 1.4173103523 1.4077979346
-1.8315231487 1.2906499155 1.8921021442
-2.1431581842 1.4936563929 1.2793290278
-1.7622839560 1.2510681756 2.0261310330
-1.9932144064 1.3944508079 1.7150383006
-1.7375107810 1.2442299860 2.1822486726
-2.0308107320 1.4141827020 1.3835254832
-1.8755714794 1.3151302365 1.7628764720
-2.2427731294 1.5734149987 0.8718731364
-1.9473883203 1.3610334002 1.6574185246
-2.0877414154 1.4547229511 1.4191185399
-2.2698132107 1.5864680240 1.1114553616
-2.0062043296 1.4044885822 1.7481839184
-2.1780127814 1.5185722549 1.4084181089
-1.8844699792 1.3311699198 1.9877098432
-2.1292636505 1.4841393842 1.4227861409
-2.2640598953 1.5820025028 1.1297297028
-2.1561050825 1.5034271909 1.4616912736
-2.1486135761 1.4983002119 1.4794059926
-1.9739694950 1.3737498862 1.3476664936
-1.6717035161 1.1586952660 1.1772898948
-1.7804401338 1.2359558823 1.2265450407
-1.8439638917 1.2810363438 1.2463195385
-2.1032814187 1.4660627221 1.4503746018
-1.9411209034 1.3630866726 1.8391746450
-2.1636040089 1.5086401481 1.4436444554
-2.1562007782 1.5035436801 1.4614049693
-2.0921187256 1.4791920052 0.5287769636
-2.1753609314 1.5379858993 0.5735325213
-1.9512840112 1.3576403191 1.3331685449
-1.6210934852 1.1579236191 2.0373810073
-1.6002142038 1.1460331948 2.0663341235
-2.0082183440 1.3981850473 1.3687506607
-2.0266593962 1.4111503963 1.3589420479
-2.0565197749 1.4322756576 1.3559283588
-2.0818261638 1.4501111950 1.3284237854
-2.1116875116 1.4713257793 1.3246531152
-2.3623835239 1.6631916719 0.8162094702
-2.2518913870 1.5721562534 1.2087219854
-2.1781938181 1.5187994137 1.4078481653
-1.8380069611 1.2876380439 0.6188472056
-1.7463620936 1.2117311018 1.2049468566
-1.7667869432 1.2309214373 1.4796194643
-1.8716196776 1.3009320863 1.2832212851
-1.9373283131 1.3481402485 1.3659209549
-1.9810405502 1.3786909363 1.3306172474
-1.9854902086 1.3820238904 1.3543798565
-2.0609531091 1.4355950886 1.3799406857
-2.0765866333 1.4468973337 1.4113067137
-1.8972006293 1.3307165215 1.7794288142
-2.1599413327 1.5057091638 1.3093697106
-2.2041914996 1.5377705635 1.2263345421
-2.1366782806 1.4893762944 1.4046215746
-2.1335218988 1.4874432357 1.4468859994
-2.3369462051 1.6424516064 0.8681830335
-1.7691779163 1.2280014708 1.2190521865
-1.8488885831 1.2847673698 1.2688592495
-2.0455339111 1.4339974841 0.7526160329
-1.9258736532 1.3391999238 1.2556263362
-1.9172120117 1.3334238545 1.3115510177
-1.6319141593 1.1626612313 1.9981436652
-1.7776834821 1.2498678359 1.7970472465
-2.0196971546 1.4064085817 1.3755886701
-2.1566902172 1.5064107111 1.0352005695
-2.1049162475 1.4666025086 1.3418107057
-2.0838312868 1.4519114929 1.3938911995
-1.8435905457 1.3018255865 1.9502130887
-2.0277745412 1.4166886007 1.6466480769
-1.7293520248 1.2366638792 2.1462519639
-1.9319571141 1.3575472741 1.8551933658
-2.1523288592 1.5006878771 1.4361650497
-2.0747378944 1.4486010755 1.6110058427
-2.1710591548 1.5138828388 1.4254045349
-1.7913982440 1.2767961810 2.1295752797
-1.8603179715 1.2929300348 1.2758461871
-2.0223180402 1.4079982126 1.3345828077
-2.0337631596 1.4161477038 1.3415580671
-2.0580391071 1.4339389416 1.4210724802
-2.0807552200 1.4501180315 1.4354409211
-2.1181255011 1.4763577718 1.4148873073
-2.1596594724 1.5057921070 1.4182859209
-1.8261989621 1.2686563082 1.2543694207
-1.6746361207 1.1768939334 1.7313458795
-1.9970130513 1.3903046237 1.3610819133
-1.6720683335 1.1902952780 2.0124811497
-1.9748449176 1.3774031175 1.5411253924
-2.1118602831 1.4715559649 1.3240785876
-2.0839228420 1.4520291888 1.3936064777
-1.8605594975 1.3083838941 1.8433117445
-2.0808034927 1.4501790732 1.4352954548
-2.2599159349 1.5832320106 0.9593436978
-2.1224214889 1.4803285388 1.5063722447
-2.4008208822 1.7014903500 0.6240395573
-2.1564395345 1.5038430515 1.4606802397
-1.9537342187 1.3592150851 1.2924551349
-2.0888953307 1.4595286257 0.9430785506
-1.6899073891 1.1923739456 1.8363059999
-1.9742828630 1.3741427021 1.3467153188
-2.1998283794 1.5460875106 0.7738818193
-2.0881607688 1.4552439837 1.4178512834
-2.0995485594 1.4633541119 1.4249648799
-2.2788944313 1.5962134441 0.9882067726
-1.9342374620 1.3613063905 1.9051793980
-2.1565342776 1.5039656044 1.4603882439
-1.9743728347 1.3742598076 1.3464369674
-1.6699261628 1.1951984129 2.1109012182
-2.1598454677 1.5060379443 1.4176921689
-2.0955239695 1.4604021849 1.4000700659
-1.9566415803 1.3699249005 0.7345428500
-1.4742940142 1.0513088353 1.8875440879
-1.8084220268 1.2588231152 1.4244774694
-1.6540612572 1.1621970929 1.7127544338
-1.6375776350 1.1535799767 1.7657977428
-1.9195672577 1.3349927175 1.2709873940
-1.9037065172 1.3243910281 1.3430795140
-2.0748474386 1.4506794259 0.8971247898
-1.9424596425 1.3512946001 1.2849310009
-1.9418787926 1.3518361824 1.3885319783
-1.9049460501 1.3272337924 1.4701329085
-2.1633762802 1.5201277831 0.7593152314
-1.9972391325 1.3906002090 1.3603812186
-1.7781251504 1.2503209606 1.7961405262
-1.5797279308 1.1346695907 2.0939604383
-2.2035558213 1.5472941609 0.8140875958
-2.1608173023 1.5109774901 0.9753098113
-1.6518240216 1.1787869198 2.0414212070
-1.9008024624 1.3301445744 1.6881982932
-2.0541817614 1.4311557443 1.3959377338
-1.7531398833 1.2418858516 1.9651731274
-2.2034206950 1.5408738701 1.0152324883
-1.7421349551 1.2411877508 2.0799905240
-2.1111243902 1.4717112797 1.4314942489
-1.9744441646 1.3820611907 1.7215808159
-1.8538995908 1.3081684493 1.9333811077
-2.2162141642 1.5465771614 1.2314040940
-2.1556561420 1.5030055398 1.3927108389
-2.2870470671 1.6005311708 1.0540208571
-1.7604306702 1.2576865028 2.1498306893
-1.6784015455 1.1635442462 1.1611357695
-1.6948704714 1.1754469848 1.1902968700
-1.5794534816 1.1152190897 1.7811629001
-2.0406261496 1.4280359423 0.8246874323
-1.9289532621 1.3419942523 1.3175713451
-2.0156925342 1.4036077978 1.3504876884
-2.0409556422 1.4213607128 1.3235450979
-2.0684136581 1.4410179505 1.3614715630
-2.1876339648 1.5275805627 1.1107223441
-1.8886735270 1.3257169423 1.7943617373
-2.0662231169 1.4404564492 1.4688940871
-2.3323918714 1.6501702586 0.6416856806
-2.0924485094 1.4586414678 1.4416036910
-2.3383323733 1.6491549956 0.7443698857
-1.8243848606 1.2919975484 2.0058584717
-2.2704775135 1.5866220862 1.1520496490
-2.0811370066 1.4506141356 1.4342752552
-1.7427698688 1.2401491093 2.0547498597
-2.0699831689 1.4434613676 1.4933013330
-2.3303174873 1.6350764926 0.9469305263
-2.3202619354 1.6265746202 0.9844991851
-1.9062631373 1.3258899604 1.3030741211
-2.1877019328 1.5276976949 1.1104187641
-1.5418517148 1.0663635423 1.0754446917
-1.9063084021 1.3259518260 1.3029306805
-1.9010352116 1.3231267809 1.3822166291
-1.8488976840 1.2887492007 1.4944040991
-1.9562734899 1.3617311043 1.3550142363
-2.1052631595 1.4678864837 1.1507538306
-2.2988705446 1.6273228771 0.6106266870
-2.0283912314 1.4174104088 1.6450702891
-1.7829237813 1.2692839114 2.0931651163
-2.1493924428 1.4992958521 1.4770475156
-1.7582896022 1.2205518036 1.2103813202
-1.5499475487 1.0874521902 1.6223064171
-2.0272915191 1.4119898514 1.3569435808
-2.0399014323 1.4215615179 1.4293445680
-2.1072206432 1.4689164133 1.4062142908
-2.0926407854 1.4589014423 1.4410046909
-1.9009535513 1.3355782960 1.8273507669
-2.1300575358 1.4851811452 1.4202916365
-2.1267211660 1.4831783606 1.4625381943
-1.6961959678 1.1762066229 1.1526937452
-1.7542850020 1.2173665442 1.1503557788
-1.7416528851 1.2171731073 1.5859846071
-2.1221659280 1.4878276412 0.8195034731
-2.0347306800 1.4173489742 1.1535759365
-1.9633442325 1.3666367240 1.3381893338
-1.6728680150 1.1910701227 2.0110768886
-1.6509613394 1.1815340726 2.0899257815
-2.0615920036 1.4364505753 1.3779124195
-1.8874020599 1.3240115692 1.7689126105
-2.3055614533 1.6268437356 0.7118334859
-2.1029804485 1.4657915164 1.3816351716
-2.2841795977 1.6044359649 0.8653192526
-1.7630705995 1.2549396800 2.0735556262
-2.3261181130 1.6377840245 0.8000901270
-2.1444545011 1.4952216176 1.3848952523
-2.1373222614 1.4902489420 1.4025398862
-1.9315116308 1.3565540208 1.8282933067
-2.2036133376 1.5374877583 1.2666048081
-2.1487695324 1.4984014172 1.4095081244
-2.3886233635 1.6931723803 0.6184284115
-2.1529410125 1.5015115634 1.4342170881
-2.3401068862 1.6436759285 0.9085890133
-2.3046165543 1.6138122567 1.0399670569
-1.9178310165 1.3342498748 1.3096125292
-2.1114581137 1.4721695936 1.4304339242
-1.8447241186 1.2820533031 1.2439068461
-1.8381455875 1.2775205966 1.2597226902
-1.9450966467 1.3538922222 1.3472587454
-1.9607290277 1.3652499324 1.3781778441
-2.0595598647 1.4347597683 1.3122784787
-2.0431658787 1.4235580715 1.3876403181
-2.0967014350 1.4621247855 1.4651220402
-2.1266390848 1.4840237320 1.5293172609
-2.0948346154 1.4628855847 1.5991781656
-1.8381879875 1.2775809775 1.2595853229
-1.9337806953 1.3458621256 1.3399403162
-2.0318213680 1.4155097621 1.3803862974
-2.0773821634 1.4479635938 1.4088100561
-2.1570765177 1.5044529440 1.2405227240
-1.8719913492 1.3169158186 1.8502326462
-1.8930305339 1.3320249735 1.8679330127
-2.3629702373 1.6671688189 0.7517709873
-2.1530836016 1.5017159144 1.4337483230
-1.9932611918 1.3879147939 1.3350881258
-2.0774304954 1.4480329111 1.4086529199
-2.1457728342 1.4967153295 1.4512848134
-2.1571632240 1.5048290659 1.4583901290
-1.8220133352 1.2659714717 1.2294121062
-1.8496665598 1.2858214663 1.2664036480
-1.9863534923 1.3831896199 1.3516600325
-2.0205252255 1.4075316583 1.3729741286
-2.0846629590 1.4530529528 1.3912175931
-2.1752027102 1.5175838441 1.2287672216
-1.7839416793 1.2686621125 2.0670368731
-2.1270150762 1.4835909246 1.4616048471
-1.9623984509 1.3778980918 1.8283175694
-2.3792142529 1.6799300968 0.7366586588
-1.6157976973 1.1194209039 1.1386385460
-1.7649560776 1.2253612276 1.1941018586
-1.9382529769 1.3493656824 1.3631026599
-1.9863982957 1.3832549156 1.3515131446
-2.1568943912 1.5109041987 0.8917547217
-2.0692814142 1.4419225088 1.2124758512
-2.0846762607 1.4527352951 1.2839724457
-2.0361714027 1.4189063912 1.4040616919
-1.7135099184 1.2191612762 2.0243940684
-2.0816172087 1.4512832007 1.4327560860
-1.7225746440 1.2288179142 2.0838242676
-2.1147045745 1.4743499548 1.3876709586
-2.2468912113 1.5709868539 1.0960645335
-1.8552385086 1.3106356016 1.9567661660
-2.1043021245 1.4682407212 1.5139300003
-1.7729323596 1.2637757030 2.1075483487
-2.3281469644 1.6353816451 0.9026440460
-2.1111203635 1.4737987293 1.5637212365
-2.0775730500 1.4482403583 1.4081860381
-2.1082810470 1.4705486144 1.4715848251
-1.5779308774 1.1120458562 1.7324136557
-1.7742746642 1.2379957813 1.5235976206
-1.8816870659 1.3091290478 1.3265925140
-1.9067535454 1.3265878586 1.3014863184
-2.1506333538 1.5256908509 0.4874735001
-1.9181446860 1.3347027109 1.3085891555
-1.9774137908 1.3766355580 1.3037903844
-1.7475857443 1.2287189085 1.7674807636
-1.9610124325 1.3656510840 1.3772841980
-2.0135443995 1.4028571379 1.3894044589
-2.0063412134 1.3979493905 1.4062508745
-2.0434472333 1.4239660861 1.3867203636
-2.0548383739 1.4320809383 1.3938232008
-2.0662295146 1.4401957906 1.4009260379
-1.9598511454 1.3706229008 1.6617371439
-2.2353280106 1.5614346983 1.1746733570
-2.2707230215 1.5880663553 1.1072317850
-2.0063884087 1.3980178819 1.4061002049
-2.0690483264 1.4419410835 1.3593428881
-2.3516929080 1.6670161342 0.6054354615
-2.3098433624 1.6256484131 0.8127298781
-2.1346239079 1.4889556608 1.4433855649
-1.6334467643 1.1319512844 1.1307510479
-1.7815364790 1.2374517908 1.2230716074
-1.8108055623 1.2581534868 1.2216654067
-1.8449307379 1.2873486857 1.5323381018
-1.9524092268 1.3591831444 1.3295953298
-1.9935331158 1.3883196103 1.3341757561
-2.0819654935 1.4524656494 1.4985331492
-2.1305787810 1.4859442029 1.4185585182
-2.1534197252 1.5022149683 1.4326223119
-2.0079565641 1.4064947357 1.7439825321
-1.9346061930 1.3610394479 1.8770506917
-2.1574565240 1.5052607687 1.4574237967
-2.1311845507 1.4985966234 0.7251144076
-1.9638468655 1.3673677056 1.3365433591
-2.0094136897 1.3998305584 1.3649471449
-2.1628124625 1.5120957700 1.0137333908
-1.6100472629 1.1571318762 2.1222067836
-2.0891556321 1.4566405507 1.4146537701
-1.7229679037 1.2292264116 2.0831190712
-2.2000684321 1.5364329377 1.1560583816
-2.1192060988 1.4778814418 1.4113644503
-2.1119390443 1.4728719771 1.4288556630
-2.1492859463 1.4991722166 1.4077521931
-1.9346749221 1.3611199350 1.8768975583
-1.7607426779 1.2599648879 2.1727503288
-2.0664185661 1.4404798079 1.4002962066
-2.0264543796 1.4159201391 1.6180798160
-2.1420940788 1.4942249021 1.4252672196
-1.6335682446 1.1321348075 1.1303448537
-1.7474890741 1.2132977929 1.2013415805
-1.9023016342 1.3234394145 1.2774694770
-1.5931883208 1.1293788348 1.8595499398
-1.5939752585 1.1327073269 1.9074619842
-1.9385839733 1.3498484593 1.3620423585
-1.9981148988 1.3918563608 1.3575343796
-1.8695025602 1.3082956870 1.6604692347
-1.7429058932 1.2311074593 1.8793758341
-2.2561098274 1.5995737765 0.5558110730
-2.0137823468 1.4032110652 1.3886252664
-1.9917132374 1.3892962572 1.5042138618
-1.8757731180 1.3151850142 1.7338095301
-2.0592335310 1.4355959648 1.4173020072
-1.9060611925 1.3360385356 1.7346447210
-2.1220967664 1.4797809636 1.3690341635
-2.3586573551 1.6666057103 0.7077326162
-2.1890203302 1.5273271576 1.3429681106
-2.0596669478 1.4396661620 1.6414804063
-1.9348120170 1.3612825428 1.8765903571
-2.3713460903 1.6726768684 0.7734891756
-1.6282366989 1.1282308440 1.1086135128
-1.8197583024 1.2721074636 0.6937864293
-1.9981615790 1.3919278951 1.3573771306
-2.0323383962 1.4162776784 1.3786742217
-2.0251931732 1.4113799877 1.3956356359
-2.0647523628 1.4389737937 1.3344228678
-2.0551229410 1.4325108674 1.3928722825
-1.6618586623 1.1897820250 2.0979908835
-1.9539629288 1.3680128380 1.7020761292
-1.9507856215 1.3689614281 1.7932909671
-2.1751456190 1.5175365879 1.3785947698
-1.9537032565 1.3728875184 1.8434926545
-2.3906704723 1.6918381489 0.6775709301
-2.1576533925 1.5055602175 1.4567635557
-1.9298524535 1.3432972674 1.3146321254
-2.0525588993 1.4304765897 1.1810312964
-2.0785240240 1.4499091636 1.4731105122
-2.1235242300 1.4812843471 1.4353049057
-2.2233042208 1.5526546531 1.2098755647
-2.0344011751 1.4234824102 1.6924092003
-2.1036216607 1.4691840561 1.5797140854
-2.0821059737 1.4520127021 1.4311524621
-2.0612402092 1.4605068660 0.4781027517
-1.8910568762 1.3155798355 1.2698305516
-1.9253221985 1.3399921812 1.2909127226
-1.9501014883 1.3574231014 1.2650608872
-1.9501078485 1.3582127787 1.3686580206
-2.1868397216 1.5434039703 0.6483380599
-1.9824310691 1.3806794239 1.3260496744
-1.9655869297 1.3694944874 1.3997283338
-2.0052746173 1.3969543210 1.3401044551
-2.2329234967 1.5726815933 0.7424395407
-2.0480645419 1.4277965731 1.4094878832
-2.0594281089 1.4358940013 1.4166544869
-2.0447149260 1.4258930577 1.4508640616
-2.2463669087 1.5760003275 0.9077784709
-2.0707916759 1.4439914296 1.4238210906
-2.2939951451 1.6164695518 0.7648972489
-2.1037680816 1.4669922783 1.3789260878
-1.7547264841 1.2478291864 2.0364974237
-1.6806831819 1.2052837447 2.1423982276
-2.3550299169 1.6710528132 0.5850384838
-1.9220012923 1.3502549149 1.8170774075
-2.1236229902 1.4814385508 1.4349688555
-2.1276095110 1.4844785709 1.4596541089
-1.7738077900 1.2647050462 2.1059473749
-2.3747463979 1.6794474204 0.6921151866
-2.1464086722 1.4976735455 1.4491630259
-2.3587302529 1.6610675601 0.8299040985
-1.9922644725 1.3979125840 1.8016404290
-1.7818802883 1.2379802618 1.2219112333
-2.0253848308 1.4116752080 1.3949958363
-2.1429949350 1.4947570436 1.3154218365
-2.1351140527 1.4897113884 1.4417294853
-1.5936448819 1.1040909664 1.1224104503
-1.7477876583 1.2137639506 1.2003251630
-1.8176357934 1.2632661063 1.2045363277
-1.7824624546 1.2396378269 1.3207040870
-1.7754971572 1.2349922497 1.3361421591
-1.7389741692 1.2125634397 1.4741984000
-1.8709100085 1.3018875822 1.3175449404
-1.9140345477 1.3320696591 1.2834167742
-2.1273518594 1.4954542590 0.7412271566
-1.9483015553 1.3564847646 1.3044930093
-2.1848814558 1.5452642049 0.5898766689
-1.9893995549 1.3856390731 1.3088693956
-1.7416593097 1.2280667506 1.8295285170
-1.5826825459 1.1356373454 2.0661076298
-2.0141183767 1.4037301076 1.3875019081
-1.8191194017 1.2784600921 1.7789586074
-2.0182590836 1.4069038209 1.4115866643
-1.6532655578 1.1820367965 2.0625033903
-2.2194975308 1.5583382280 0.8557769203
-2.1173306098 1.4769853926 1.1946818470
-1.7839366634 1.2596862793 1.8905412014
-1.7742826057 1.2539430265 1.9060174468
-2.1150327589 1.4749506075 1.2775889359
-2.2107985671 1.5467504913 1.0346168121
-2.0781966250 1.4491981529 1.4060833828
-2.2060605171 1.5421068079 1.0945165722
-2.0967919217 1.4622835549 1.3958233615
-2.3426983961 1.6623355603 0.5807611758
-2.3142795893 1.6330800456 0.7314361363
-2.2921555040 1.6103180262 0.8853919669
-1.8058974315 1.2806674237 2.0085663826
-2.2693084657 1.5895121157 1.0201949471
-2.1382614815 1.4916956443 1.3992913877
-2.0128005877 1.4082389504 1.6754872274
-1.8058272520 1.2820107495 2.0336584149
-2.3765078158 1.6854746417 0.6111155340
-2.2172284022 1.5483454264 1.2271411621
-2.1611633163 1.5080120399 1.4132024634
-2.1579505136 1.5060270982 1.4557491600
-1.9740674204 1.3867616298 1.8345646180
-1.9687082270 1.3714102176 1.3586859588
-1.9800725654 1.3795088797 1.3658499446
-2.0782439738 1.4492741620 1.4059197681
-2.1653737633 1.5111916223 1.4378072957
-2.0782931891 1.4493538617 1.4057488695
-2.1051309361 1.4686751249 1.4444812419
-1.9347100608 1.3472656935 1.3368709535
-2.1011298322 1.4656714474 1.4197660177
-1.8233643967 1.2686610512 1.3267303538
-1.8618999791 1.2952363658 1.2706577000
-1.9830164985 1.3816279386 1.1015441625
-1.8229302274 1.2777048980 1.6895444779
-2.1592195487 1.5076450684 1.1535272758
-2.0811921800 1.4512131364 1.3638443702
-2.0855589081 1.4544560849 1.3881274181
-1.9263304424 1.3501367872 1.7250446246
-2.0897834169 1.4576298943 1.4125067884
-2.3518527731 1.6679493677 0.6027639349
-2.2968580776 1.6146564242 0.8660745515
-2.1340834509 1.4887970233 1.3740727083
-2.1312512354 1.4870145627 1.4162184145
-2.1570432025 1.5051553225 1.3878383423
-2.3551944995 1.6607324474 0.7860860946
-2.1581484482 1.5063479529 1.4550615149
-1.9650204716 1.3813662266 1.8505395327
-1.7943102911 1.2797955771 2.1243228860
-1.9713752532 1.3731380644 1.3177319519
-2.1313011068 1.4870973259 1.4160407147
-2.1468054160 1.4983120072 1.4477903669
-1.9714211844 1.3732149691 1.3175674570
-2.0670933002 1.4415520724 1.3979777969
-2.1541966022 1.5034592836 1.4299094457
-2.1394272454 1.4932995177 1.4652765375
-2.1507925620 1.5013997883 1.4724371523
-2.1582988151 1.5065962930 1.4545335821
-1.9418461739 1.3523832741 1.3196477236
-2.0145061585 1.4043565334 1.3861727870
-2.0713346992 1.4448611721 1.4219690355
-2.0940661154 1.4610630277 1.4362875349
-2.2876436784 1.6067949600 0.9025161689
-1.9241012846 1.3531352211 1.8403252685
-2.1355602440 1.4904399993 1.4401728694
-1.8667980428 1.2991207251 1.2929424965
-1.9577252696 1.3639307943 1.3502110189
-2.3144228493 1.6336953271 0.7297920875
-2.4012910072 1.7038640011 0.6170526725
-1.6745751382 1.1618454928 1.1344205420
-2.1621776986 1.5164831522 0.8699286899
-1.6348563552 1.1673591109 2.0167501034
-2.0575059523 1.4344330176 1.2428838792
-2.0444963636 1.4256332463 1.3831155590
-2.2692500222 1.6023108950 0.6938274284
-2.0487010246 1.4288216840 1.4073103364
-2.0906018971 1.4591744037 1.4778735064
-2.1094458235 1.4723480931 1.4677364618
-2.3257988298 1.6365117141 0.8558966818
-2.2356232867 1.5621713052 1.2133946730
-1.7660124801 1.2270531747 1.1904108605
-1.8896232542 1.3154792140 1.3069333662
-1.9259542033 1.3410400070 1.2886618250
-1.9191949196 1.3363753391 1.3049753883
-1.9761725344 1.3769852497 1.3404135989
-2.0929748592 1.4599412099 1.3695799710
-1.8063966072 1.2787540605 1.9568553403
-2.1087447441 1.4713106725 1.4009486416
-2.1759317969 1.5188873346 1.3756329153
-2.1669763619 1.5176107590 0.9512291891
-2.0218030826 1.4095554602 1.3685912669
-2.0901773885 1.4582893812 1.4111129169
-2.1510997517 1.5019102513 1.4713676509
-2.0060182711 1.3981947226 1.3374470775
-1.9991073398 1.3934753827 1.3540734544
-2.0218995500 1.4097213866 1.3682445286
-2.0332956551 1.4178443885 1.3753300657
-2.0493920478 1.4302738935 1.4723939314
-2.0902761806 1.4584593983 1.4107577512
-1.8081741337 1.2580366775 1.2946590382
-2.0772400340 1.4497654543 1.1089055159
-1.9849928283 1.3838673698 1.3873785778
-1.9423733017 1.3573675958 1.5758228808
-2.0447405619 1.4260519236 1.3822394738
-1.8700358094 1.3136773557 1.7709545123
-2.3212055249 1.6489911677 0.5517197012
-2.0494449352 1.4303606952 1.4722172892
-2.2943108085 1.6177215020 0.7616054519
-2.2441184262 1.5734652001 0.9646145347
-2.1275261830 1.4847668625 1.3897040960
-2.1285201355 1.4859666927 1.4565133145
-2.0980980437 1.4653829382 1.5264393523
-2.3380516243 1.6455903596 0.8597177606
-2.1323807677 1.4889481142 1.4812872495
-1.8169022569 1.2919947164 2.0659628117
-1.6291229739 1.1297039492 1.1054505641
-1.6511447008 1.1457001831 1.1558801264
-1.7370832866 1.2067957368 1.1907944600
-1.4084826716 1.0044433614 1.8128060147
-1.8462047914 1.2844326242 1.2387243265
-2.1537291777 1.5216759975 0.6146989174
-1.9536166076 1.3611457751 1.3253929765
-1.9901269208 1.3868905286 1.3061915783
-1.5847249375 1.1359254132 2.0394119278
-2.1302126731 1.4878560417 1.1155357557
-2.0006044149 1.3962383919 1.4836385785
-1.7564156536 1.2468424119 1.9838062028
-2.1647336833 1.5115694421 1.2171192282
-2.1888757441 1.5291729767 1.1876197910
-1.7126910372 1.2274778176 2.1444871841
-2.1318387618 1.4880229860 1.4140845401
-2.0161659585 1.4119922246 1.6977374610
-1.7322929710 1.2417538788 2.1643918342
-2.2990143370 1.6121633891 1.0095355233
-2.0115781587 1.4108917303 1.7648128259
-1.7845796464 1.2747609501 2.1379721372
-1.8348245146 1.2763691598 1.2315426976
-1.7362985238 1.2337252715 1.9894376382
-1.7362168343 1.2351028675 2.0142229265
-2.1433144444 1.4962563129 1.4209120872
-1.8604228954 1.2951958016 1.3074188220
-1.8252212640 1.2768600020 1.5992402992
-1.8524425368 1.2950060309 1.5757830259
-1.9765060406 1.3775624354 1.3392104247
-2.0106966931 1.4019356160 1.3604584887
-1.9070600118 1.3340643010 1.6163152744
-2.2495020868 1.5840027796 0.7843253569
-2.2993188243 1.6298148764 0.6035689529
-2.3459712000 1.6670529535 0.5584368657
-2.1391253435 1.4931922296 1.3960990126
-2.1400419897 1.4943372514 1.4631167196
-2.1514096719 1.5024416013 1.4702689586
-1.9695744529 1.3728550375 1.3556624728
-1.9879499685 1.3857699113 1.3461213699
-1.8021414002 1.2690203621 1.8072496614
-1.7357447663 1.2378395298 2.0636621260
-2.1205610188 1.4801430745 1.4065212953
-2.0197794304 1.4128584916 1.6304688365
-2.1475090219 1.4995162623 1.4452691428
-2.0791771409 1.4508579656 1.4025916737
-2.1515133850 1.5026232021 1.4698967535
-1.6636079341 1.1545082465 1.1257161149
-1.7892974577 1.2441074474 1.2028347962
-1.8854699621 1.3128139440 1.2820399702
-2.0298018384 1.4168120297 1.0435052001
-1.9378396220 1.3499974122 1.2939750560
-1.9102403560 1.3311050333 1.3592732092
-1.8387711615 1.2847536780 1.5432802659
-1.9595344242 1.3665362361 1.4122805624
-2.0333834899 1.4177874520 1.2684030624
-2.0247228758 1.4118074849 1.3261333211
-2.2590261471 1.5998714185 0.6097909631
-2.0336370748 1.4184449251 1.3740867448
-2.0193087556 1.4086368369 1.4079866601
-2.0749554659 1.4477419950 1.3781045266
-2.0863817863 1.4558873769 1.3851153158
-2.2783091659 1.5995212138 0.9371141935
-2.3575957144 1.6708235088 0.6413762540
-2.2853886611 1.6039385200 0.9608153030
-2.2000212582 1.5370077118 1.2350980327
-1.9242471813 1.3406898094 1.3265372580
-2.1748894764 1.5362558095 0.6396888561
-1.6151893455 1.1566843718 2.0440332428
-2.0430673224 1.4248409219 1.3158674972
-2.2129243515 1.5478314370 1.1144186482
-2.1248665307 1.4835376917 1.4305479373
-2.3699265293 1.6797670736 0.6451280711
-2.2923648611 1.6083704439 0.9844394716
-2.1622793019 1.5099723327 1.4090450813
-1.9265523914 1.3421061403 1.2864398877
-2.0266646890 1.4138220762 1.3905143590
-2.0721402092 1.4462481277 1.4191058887
-2.0907749482 1.4593435824 1.4089331158
-1.8074135611 1.2800188937 1.9547028878
-2.1093827802 1.4724496073 1.3985772445
-1.7374782912 1.2074989088 1.1893448539
-1.7927204912 1.2472585257 1.2629346284
-1.8448085690 1.2842000910 1.2759810908
-1.9084520839 1.3294025253 1.2955088415
-1.9243921032 1.3409482029 1.3260112223
-1.9426468425 1.3537832486 1.3167416390
-1.9540450954 1.3619101563 1.3238192382
-1.9584993322 1.3652688223 1.3474527073
-2.1602360345 1.5196361827 0.7684394435
-1.9698684085 1.3733756955 1.3545998689
-2.0122267276 1.4040472962 1.4241516222
-2.2060802578 1.5481185287 0.9054984250
-2.0776574790 1.4496631802 1.3359227293
-2.1050990716 1.4693220093 1.3739773858
-2.0762094780 1.4494265514 1.4433482885
-1.5095544707 1.0450355632 1.0476397402
-2.0989549437 1.4735505571 0.8018191161
-2.0461301774 1.4297867243 0.9915258448
-1.9628652114 1.3686502667 1.3709994088
-2.0020467205 1.3959124180 1.3113500635
-1.9742049803 1.3767373678 1.3782152001
-1.8938665044 1.3243874503 1.5825962089
-2.2166905221 1.5645979968 0.6919381352
-2.0581837304 1.4357657240 1.2400124371
-2.0224849335 1.4107633960 1.3660975690
-2.0813698734 1.4522940928 1.2531825788
-2.0608730861 1.4383243158 1.4115872821
-1.9596226722 1.3714054010 1.6307996341
-2.1277421593 1.4853508304 1.2795228621
-1.6626195331 1.1948313695 2.1427521455
-1.9473240890 1.3653727230 1.7132057800
-2.0876026697 1.4576083790 1.4503731129
-2.1323366031 1.4889276098 1.4122146450
-1.9619815616 1.3774728743 1.7713624580
-1.9266051915 1.3567285093 1.8623188151
-1.8486158628 1.3098512794 1.9914359788
-2.2106354614 1.5445947946 1.2829654579
-1.7429928270 1.2499378799 2.1726921593
-2.2895374951 1.6039669037 1.0874573954
-2.0386625537 1.4285807453 1.7121331638
-2.0066843624 1.3993975988 1.3349539158
-2.0638217623 1.4401354500 1.3699856900
-2.1666690822 1.5134635821 1.4330428837
-2.0752974398 1.4483733155 1.3768076734
-1.8353623768 1.2773531410 1.2295132136
-2.0446436546 1.4297398903 0.9511791195
-1.9744865453 1.3763381578 1.2733842244
-2.1212373106 1.4808624778 1.2964982593
-2.1553426819 1.5055060386 1.4256490816
-1.8125515396 1.2611410764 1.2153310746
-1.9496882931 1.3589254173 1.2993802237
-2.0251475539 1.4126070962 1.3244840190
-2.1096811722 1.4730071484 1.3974375644
-2.0797282638 1.4518647723 1.4005390894
-1.8483063938 1.3073346970 1.9403405394
-1.8354982680 1.2776104735 1.2289896870
-1.9154974349 1.3346566622 1.2780077128
-1.9361044468 1.3496809639 1.3318959473
-1.9657831592 1.3706660227 1.3296210806
-2.2223437887 1.5578494229 0.9924017339
-2.0911792369 1.4600910541 1.4074166565
-2.3490655916 1.6715636754 0.5366511024
-2.3429358337 1.6646181003 0.5745589266
-2.1440664831 1.4976457727 1.4180592150
-2.1595770974 1.5088683440 1.4498506069
-2.0641169041 1.4406941540 1.3688493835
-2.1212601479 1.4814433524 1.4038584211
-2.1254299025 1.4845769183 1.4284376439
-1.8746795289 1.3058056851 1.2726875484
-1.9772798811 1.3789785049 1.3363248175
-1.9746098310 1.3774697794 1.3767502592
-2.2566420111 1.5836302782 0.9661840977
-2.1169955162 1.4783345585 1.3791835903
-2.1408782727 1.4958474729 1.4600596412
-1.5783215686 1.0944988074 1.0886828047
-1.9805844092 1.3947304486 0.6249153920
-2.0310430782 1.4175347738 1.1209880691
-1.9659298546 1.3709429955 1.3290634860
-1.7442158739 1.2313205252 1.8238848260
-2.0756450068 1.4490354642 1.3754641763
-2.0685320480 1.4441193982 1.3926936663
-2.1780734145 1.5231435298 1.1359586576
-1.8279440869 1.2928487792 1.9213459233
-2.2016653626 1.5399766737 1.1479712377
-2.1513266995 1.5027148019 1.2909360385
-2.1677787609 1.5144155424 1.3219264231
-2.1181903514 1.4797276215 1.4455777600
-2.1107616612 1.4746526690 1.4630670180
-2.2546935016 1.5788462253 1.1111058855
-2.2309950829 1.5606227151 1.1842108419
-2.2365958138 1.5643674324 1.2085439461
-1.7025093082 1.1834780837 1.2033736865
-1.9476734115 1.3581604993 1.3382979049
-2.0299778171 1.4165279271 1.3472717955
-2.0955004294 1.4636045840 1.4311026673
-2.1068717385 1.4717156675 1.4382414952
-1.7671467301 1.2613641374 2.0898779119
-2.4079318627 1.7130793317 0.5729457363
-1.9090234022 1.3304706404 1.2933504382
-2.1889198338 1.5418322501 0.7575175154
-2.0458310732 1.4280485055 1.3781722947
-2.0500655186 1.4312554579 1.4023581347
-2.3004094310 1.6178036465 0.9018061551
-1.9957872822 1.3922640407 1.3258926680
-2.1069771726 1.4719148545 1.4378453897
-1.8651620239 1.2990425776 1.2257908025
-1.8977196800 1.3225255077 1.2859094434
-1.9205217710 1.3387900909 1.3000432613
-1.9379155488 1.3520970137 1.3943018539
-1.9705666136 1.3746678133 1.3520089137
-2.1243010448 1.4860293689 1.0466314880
-2.0231311804 1.4119807155 1.3636454422
-1.8832526556 1.3201696148 1.6610580661
-2.0415549783 1.4249680079 1.3536904672
-2.0872742874 1.4575767645 1.3816790558
-2.1332565649 1.4900557820 1.3011830136
-2.0915374534 1.4607744652 1.4060468961
-1.7374780200 1.2399656287 2.0602610372
-2.0845882359 1.4567668502 1.4897762188
-2.1297735292 1.4882396771 1.4519198467
-2.1978861595 1.5361764502 1.3164346345
-2.0345818759 1.4202091370 1.3705206351
-2.1371930705 1.4934033064 1.4341158563
-1.8910614718 1.3180693186 1.3016817128
-1.9959334792 1.3925517984 1.3253158748
-2.1285193383 1.4904306646 0.9878510769
-1.5950595012 1.1478799252 2.0943115336
-2.0232321088 1.4121763546 1.3632555279
-2.0460350089 1.4284425476 1.3773861876
-2.0988054941 1.4659287196 1.3882759560
-2.1564859077 1.5067533439 1.3140669780
-2.1216659419 1.4822347021 1.4022670852
-2.2908617795 1.6098738630 0.9381791697
-2.1600495093 1.5097735129 1.4480394861
-2.0389534785 1.4236390587 1.3942390963
-2.0244390360 1.4137471815 1.4282080909
-2.1258972473 1.4854763661 1.4266409583
-2.3701009384 1.6813950203 0.6409388699
-1.9045853279 1.3275139666 1.2689797040
-1.9340977677 1.3484484995 1.2666011718
-1.9523867089 1.3621496970 1.3606327298
-2.0119301317 1.4042380553 1.3558036181
-2.2784670963 1.6073901917 0.7700272707
-2.0803412320 1.4530414626 1.3981861650
-2.2788538938 1.6014288021 0.9326328950
-2.0923729522 1.4622872177 1.4716470946
-1.9876111931 1.4021632235 0.5897690845
-1.8360489875 1.2786854533 1.2268275893
-1.4895210148 1.0644937939 1.8876232429
-1.4795303698 1.0619160541 1.9486747540
-1.9139551632 1.3345827636 1.3153844682
-1.9549714477 1.3636677265 1.3202880665
-1.7424538583 1.2283165618 1.7737706403
-1.8649853469 1.3053137822 1.5792636791
-2.0029012234 1.3975896279 1.3079453919
-2.0372789412 1.4221115733 1.3287150714
-2.0689920234 1.4450109221 1.3909174772
-2.1152087934 1.4775138784 1.3110390040
-2.2716452426 1.5970234630 0.9088417857
-2.0840610785 1.4577616852 1.5555894531
-2.1747898121 1.5201993552 1.4117937893
-2.0876522295 1.4610684395 0.9876973187
-2.1187217909 1.4807446145 1.4435652108
-2.1602615240 1.5101906082 1.4472132475
-1.8704342503 1.3033346753 1.2474358908
-1.9411975485 1.3543509239 1.3528525870
-1.9595471310 1.3672352840 1.3435307141
-2.0164139515 1.4078109413 1.3791854607
-1.6577206703 1.1854567498 2.0305168057
-2.0277873156 1.4159260727 1.3863164101
-2.0462889697 1.4289426084 1.3763957325
-2.2657761968 1.5959662529 0.8248148090
-2.1590730404 1.5090282098 1.3797968395
-2.1528943209 1.5051925187 1.4647568526
-1.8278414417 1.2840981083 1.7064267847
-2.1074556956 1.4728392653 1.4360225323
-2.1562679330 1.5073180985 1.4220113944
-1.8362349064 1.2790599487 1.2260830929
-1.9164190896 1.3382897815 1.4416252775
-1.9962775572 1.3932420846 1.3239421473
-1.9893786180 1.3884697639 1.3406887435
-2.0305724110 1.4177096852 1.3449119446
-2.2646988084 1.6037663922 0.6451434905
-2.0577958520 1.4372856570 1.3830470031
-1.8845863051 1.3267261721 1.7983970208
-2.3488839797 1.6677680909 0.6128079412
-2.1075094207 1.4729448635 1.4358156760
-1.9108545970 1.3509272445 1.9412603271
-1.8753972613 1.3072048011 1.2699047657
-2.0604429225 1.4389644341 1.3415541012
-2.3151333704 1.6447013221 0.5822905322
-2.2942742922 1.6230439318 0.6944519862
-2.0774876183 1.4518063249 1.4386426608
-2.3029635404 1.6254456635 0.7777862581
-2.1106441035 1.4749035035 1.3936381841
-2.1678031742 1.5156848928 1.4285838437
-2.1530579580 1.5055143142 1.4641265227
-2.1605287528 1.5107247435 1.4461613476
-1.5734338705 1.0917317973 1.0648056833
-1.9849937569 1.3853885417 1.3163547043
-2.0351439428 1.4213234135 1.3683190721
-2.1752406975 1.5208575911 1.3007785296
-2.1263718294 1.4864214256 1.4247771169
-2.1984355173 1.5374053970 1.3139089250
-2.1564770428 1.5077455185 1.4211667964
-1.8813339104 1.3334697274 1.9892588346
-1.5324538515 1.0827829499 1.6998887881
-1.8119836688 1.2623106570 1.2497079353
-1.7858425801 1.2485385061 1.4976235171
-1.6582673242 1.1861538895 2.0294425436
-2.0536369157 1.4344337074 1.3580775572
-2.0765017494 1.4507488067 1.3720508799
-2.2744577341 1.6043433501 0.7865830512
-2.2137652712 1.5492801203 1.1926802966
-2.0012189625 1.4047037101 1.7246070475
-2.2494838261 1.5753160786 1.1683928149
-2.1191777575 1.4823067684 1.5091339310
-1.7273420341 1.2018038122 1.1774073916
-1.8984005036 1.3238754562 1.2832413915
-2.2744744783 1.6044386205 0.7863577814
-2.1191537830 1.4815987884 1.4418953879
-2.3559884107 1.6647791922 0.7760043657
-2.0010866690 1.3972225644 1.3465381420
-1.9373869066 1.3524519179 1.0284241798
-1.9486327703 1.3600309590 1.3346209027
-2.1340869066 1.4959021958 0.9673533836
-1.9011481449 1.3325151722 1.6256961869
-1.9581232469 1.3790211708 1.8325331381
-2.1607970002 1.5112705960 1.4450933453
-2.1410236117 1.4969520593 1.3884934370
-2.1681740016 1.5164518810 1.4270745683
-1.8871933879 1.3161397449 1.2753993082
-2.0744805598 1.4696822948 0.5433345964
-2.1045298680 1.4719857530 1.4757833103
-2.1609601012 1.5116063706 1.4444389814
-2.0697743443 1.4465957483 1.3878107259
-2.2136241081 1.5516957640 1.0647728904
-2.0970126983 1.4669756767 1.4929731485
-1.8669089130 1.3024820363 0.9910683405
-1.8351291623 1.2793456704 1.2624071139
-1.8873418654 1.3164469836 1.2748013005
-1.9674425785 1.3733838521 1.1411149010
-1.9261396638 1.3443152483 1.3193617615
-1.7945663928 1.2601441349 1.6542379331
-2.0266064220 1.4155867597 1.3185233800
-2.0171501653 1.4092848262 1.3763164090
-2.2813561013 1.6067095659 0.8683169443
-2.2025884104 1.5424546597 1.1426626352
-2.1706542716 1.5183213125 1.2744471415
-2.1437429347 1.4990375059 1.3454580454
-2.1195369795 1.4823756013 1.4403903875
-2.2313523280 1.5622287831 1.2213960651
-1.9784356316 1.3930025295 1.8234478137
-1.8940179245 1.3211370701 1.2584810550
-1.9900402665 1.3898227821 1.3380449071
-2.0356624771 1.4223892640 1.3662403940
-2.0214115683 1.4126086203 1.4001746042
-2.0540973364 1.4353978702 1.3561880466
-2.0698791351 1.4468141254 1.3873870091
-1.7903550871 1.2709061165 1.9542326648
-1.7500937838 1.2472819070 2.0159873839
-1.9410326988 1.3636760441 1.7229114207
-1.6647802864 1.1998337724 2.1614949683
-2.0141582259 1.4119092961 1.6391761157
-1.8310454728 1.2990206061 1.9663771800
-2.2850378593 1.6028906751 1.0984996229
-1.8807359345 1.3120384774 1.2904826241
-1.9010421498 1.3269707529 1.3442966222
-2.1681389744 1.5324362939 0.6672452983
-1.6895866183 1.2020504038 1.9339904520
-1.8763274753 1.3173406086 1.6726658122
-1.7585531236 1.2454625649 1.8769039795
-2.0513870285 1.4338699498 1.3972469358
-2.0086059243 1.4068916758 1.5894747075
-2.1323236898 1.4910388491 1.3382497096
-2.1269625168 1.4876379753 1.4224064789
-2.1196474661 1.4826025388 1.4399526605
-2.1611798195 1.5120642155 1.4435504581
-1.9787389858 1.3818989435 1.3305734907
-2.0129569157 1.4063265399 1.3517148881
-1.7689503849 1.2530310990 1.8858873797
-2.3324705200 1.6421290741 0.9297961469
-2.1262029594 1.5043720661 0.6145085227
-1.9513389396 1.3622634356 1.2927547398
-1.8678800523 1.3121966212 1.6882919696
-2.0287396438 1.4178453111 1.3825894189
-2.0472265597 1.4308631251 1.3726456392
-2.1156636502 1.4797209874 1.4149233570
-2.1270698320 1.4878639644 1.4219696433
-2.1612883773 1.5122928956 1.4431085022
-1.8012469602 1.2554899921 1.2400695288
-1.8419654984 1.2843952261 1.2456078606
-2.1082927647 1.4935890325 0.5710726840
-1.9332166701 1.3495427692 1.3019710633
-1.9377755383 1.3529715796 1.3254499329
-1.9856952397 1.3868628463 1.3134684679
-2.1781668368 1.5304619907 0.9047952312
-2.0472806347 1.4309771979 1.3724250666
-2.0657407299 1.4440059596 1.3622976118
-2.0743041165 1.4504531670 1.4108303370
-1.7298874900 1.2358344837 2.0457251892
-2.0856814980 1.4585766327 1.4179453707
-2.0582462180 1.4416163863 1.5780281324
-2.2441131426 1.5728358860 1.1412112329
-2.1425684055 1.4991939608 1.4535205391
-2.3071242414 1.6209941621 1.0231275936
-2.2557027122 1.5805047721 1.1898180241
-2.1970290556 1.5374277044 1.3534365811
-1.9695889607 1.3753227035 1.2827207957
-2.3386161587 1.6585463690 0.6654837115
-1.7281392043 1.2394145765 2.1204341625
-2.1344045943 1.4931010268 1.4039276314
-2.0701994126 1.4474889747 1.3860820638
-2.0630348658 1.4425553560 1.4032824272
-2.0930130399 1.4637776823 1.4001694072
-2.1158266672 1.4800663899 1.4142567506
-2.1458925062 1.5013786443 1.4106816424
-1.8624029173 1.3220564531 1.9928789730
-2.1614539219 1.5126438051 1.4424314375
-1.9932165802 1.4062461277 0.6227180225
-1.7320055683 1.2109944747 1.4545108703
-1.8877418575 1.3172885267 1.2731726041
-2.0717645277 1.4585894187 0.7441650516
-1.6179200501 1.1478490038 1.8185515188
-1.9172337792 1.3382042333 1.2709914954
-1.9858479200 1.3871923194 1.3128292604
-2.0905099284 1.4633428269 1.0637376943
-2.0431237652 1.4279070635 1.2013765228
-1.9972836102 1.3953570004 1.3198022213
-1.9834447047 1.3857985525 1.3532709485
-2.2256695868 1.5733793368 0.7055399049
-1.7602761874 1.2495773936 1.9249291669
-2.2788470161 1.6097530899 0.7644340184
-1.9415531797 1.3645237651 1.7214389115
-2.2146885849 1.5517475114 1.1468296602
-2.2323995261 1.5647182904 1.1346099980
-2.1416480763 1.4983065249 1.3858410084
-2.1386965130 1.4964747142 1.4281136502
-2.1313590693 1.4914216563 1.4457323288
-2.2789797287 1.5995997857 1.0726896613
-1.9591547598 1.3806204913 1.8298116168
-1.7579281232 1.2612373052 2.1496052512
-1.9378945103 1.3527605213 1.1822298126
-2.0290112369 1.4184119103 1.3815022768
-2.0589010669 1.4395754145 1.3785936672
-2.0972807059 1.4671638380 1.4241714768
-2.0825267586 1.4570901801 1.4588589297
-2.3397146301 1.6564633463 0.7256435736
-1.8422118279 1.2849187153 1.2445980510
-1.8970474669 1.3236665761 1.1783467905
-1.8925227023 1.3210145567 1.2959603281
-2.1080442776 1.4872205417 0.7008735509
-1.9098650658 1.3343899268 1.3897244220
-2.0063072607 1.4022723634 1.3670670361
-2.2584784543 1.5962092890 0.7365677115
-2.1672063373 1.5186457519 1.0809229231
-1.6971829644 1.2204711688 2.1399515068
-2.3154822973 1.6362529378 0.7774889801
-2.1373073734 1.4952750655 1.3608801394
-2.1013506238 1.4703625086 1.4484990644
-1.7498125112 1.2521765785 2.0891124686
-2.1694220315 1.5181257786 1.3144145998
-2.3005244737 1.6172790845 0.9979297875
-2.1689265412 1.5180617660 1.4239433144
-1.8650781403 1.3013200345 1.2584686422
-1.9015276483 1.3279512475 1.3424354135
-2.1841177129 1.5456842016 0.6515670340
-1.6600610868 1.1885048159 2.0258638724
-2.2417363188 1.5861643785 0.6909122179
-2.0636509065 1.4427122009 1.2956749593
-1.6802708370 1.2016534772 2.0207851946
-1.8363466113 1.2954389918 1.7995246079
-2.0774919425 1.4528550078 1.3679453471
-2.0632560006 1.4430201226 1.4023930707
-2.0374256813 1.4259509344 1.4951959317
-2.1118008830 1.4773532460 1.3888562485
-2.1303417009 1.4904717408 1.3782583850
-2.1461098235 1.5018514841 1.4097671500
-2.1388621368 1.4968295511 1.4274315257
-1.8896329727 1.3186773814 1.2331428641
-2.1275094604 1.4888020867 1.4201636428
-2.1389173392 1.4969487881 1.4272028731
-2.1090692502 1.4765647668 1.4974152946
-1.5115271161 1.0489722627 1.0398677100
-1.7344952662 1.2080750910 1.1584446992
-1.9040579979 1.3294713365 1.3024381413
-2.0547236197 1.4367514581 1.3535634830
-2.0705234692 1.4481834334 1.3847469306
-1.6681543196 1.1994534700 2.1094374709
-2.1732465949 1.5217979452 1.1874505961
-2.0933396468 1.4644777669 1.3988236335
-2.2843883184 1.6085670730 0.9073152005
-2.2964666562 1.6172233831 0.9123392685
-2.3270276899 1.6422075313 0.8423437565
-2.1389720022 1.4970664339 1.4269770393
-2.1430192937 1.5001425806 1.4517061428
-1.8994542103 1.3260885729 1.2789557276
-1.9632818738 1.3715300331 1.2975942888
-1.8424128690 1.2971347315 1.7340047784
-2.1904258958 1.5400136502 0.9079088924
-2.1784382095 1.5277903598 1.0442865176
-2.3275724650 1.6559458640 0.5802633792
-2.0975599978 1.4677555668 1.4230422334
-2.1430773240 1.5002663250 1.4514705810
-2.1469811775 1.5032734178 1.4762935312
-1.9960382776 1.3947320124 1.2140254707
-1.9610616082 1.3703373278 1.3375397074
-1.9862073948 1.3879787703 1.3113102036
-1.8833866729 1.3257564830 1.7434905359
-2.0706332473 1.4484213130 1.3842912192
-2.0067567415 1.4082288201 1.6529957114
-2.1390843720 1.4973100952 1.4265104329
-2.3347165462 1.6470984187 0.8654519032
-2.1764149013 1.5236960351 1.4049274734
-1.9271940217 1.3457475785 1.1348874925
-1.9682107822 1.3754078627 1.0981950048
-2.0678049246 1.4467312404 1.1310707803
-1.6809759211 1.1980333788 1.9461845850
-2.2379987182 1.5829732013 0.7080269491
-2.2585570446 1.5968192020 0.7351447724
-2.0592781368 1.4403887518 1.3770331626
-2.0777571110 1.4534382037 1.3668209952
-2.1049130634 1.4729831534 1.4051757600
-2.1391392583 1.4974289546 1.4262827081
-2.1243962998 1.4872994942 1.4614831953
-1.9961600659 1.4042697961 1.7613532455
