-1.0459074680 -3.5617185139 1.8096184529
-0.9521584900 -3.6433176935 1.7518075628
-1.1401613577 -3.4682270989 1.9177328362
-1.0714540529 -3.5280347207 1.8705994846
-1.3341994664 -3.2243246418 2.1558211940
-1.3521305436 -3.2077714576 2.1721675305
-1.3938321243 -3.1879056856 2.1951287885
-1.3401216946 -3.2576184594 2.1290500764
-1.1903277275 -3.3960571415 2.0028466208
-1.1119304231 -3.4674778346 1.9432530744
-1.1497214897 -3.4419449249 1.9648410860
-1.1221479475 -3.4773438446 1.9365955037
-1.1010847461 -3.5076062887 1.9130835938
-1.1245943791 -3.4923372782 1.9256678460
-1.1110722652 -3.5176222726 1.9063020941
-0.9894640202 -3.6226420655 1.8265335062
-1.3388151482 -3.2141940953 2.1831513239
-1.3565040943 -3.1973908497 2.1999281679
-1.2435546014 -3.3161322357 2.0876044948
-1.3391255269 -3.2335740290 2.1669337732
-1.2072886535 -3.3627164532 2.0470659148
-1.2416459388 -3.3358478061 2.0717194475
-1.3575338207 -3.2361606793 2.1673330250
-1.1757738358 -3.4038246873 2.0123573748
-1.1901603387 -3.3932357401 2.0217705180
-1.2255025447 -3.3664794176 2.0459171540
-1.3450289385 -3.2670511895 2.1398727365
-1.1348412451 -3.4500110341 1.9740357917
-1.3036293044 -3.2617569129 2.1459476026
-1.3346142364 -3.2531587171 2.1571382608
-1.3469989936 -3.2417750774 2.1683604931
-1.1921381127 -3.3893163500 2.0313419001
-1.3342246816 -3.2728310657 2.1406802637
-1.1368806949 -3.4466801191 1.9826870799
-1.0411785805 -3.5591758752 1.8936004398
-1.0738658982 -3.5386853795 1.9100808011
-1.0674022243 -3.5590569145 1.8948348538
-0.9759933079 -3.6610084849 1.8187115160
-1.2942846134 -3.2670369581 2.1376240851
-1.3127909027 -3.2696976497 2.1376457094
-1.2921531813 -3.3065489498 2.1046580520
-1.2987857684 -3.3008686478 2.1100958088
-1.0783933203 -3.5502011131 1.8976094280
-1.0379782654 -3.5915299601 1.8655415660
-1.0052678320 -3.6584380379 1.8161472660
-0.9964604113 -3.6791280073 1.8011501543
-1.0233806787 -3.6636880090 1.8127491001
-1.3726309377 -3.1913190848 2.2010222047
-1.2366872127 -3.3315350673 2.0669495733
-1.2707968390 -3.3033493344 2.0935028807
-1.0581995435 -3.5924497663 1.8528002306
-1.0065932603 -3.6392672086 1.8169833694
-1.0336723317 -3.6390774242 1.8176510362
-1.0343992916 -3.7170383602 1.7606673606
-1.0150767296 -3.6151258856 1.8156793286
-1.2579251673 -3.2910276687 2.0624810532
-1.1714559117 -3.4281769200 1.9431467764
-1.0041218017 -3.6179075441 1.7900230460
-1.2303283785 -3.3121916853 2.0182984589
-1.1791247764 -3.3864209517 1.9531586391
-1.2093280339 -3.3636689351 1.9736377461
-1.1195196035 -3.4457690862 1.9021824485
-1.1354769061 -3.4346723643 1.9117317611
-1.1300593381 -3.4549608883 1.8950772408
-1.1541099751 -3.4381695133 1.9095613421
-1.0177748986 -3.6220086922 1.7613816812
-1.0454321516 -3.6210868568 1.7620587619
-1.0457125132 -3.6364446354 1.7501457170
-1.1916201247 -3.3422423480 1.9667877412
-1.0361233661 -3.5623737148 1.7830418563
-1.0473860979 -3.6483860482 1.7150084238
-1.2372664451 -3.2731477429 2.0070201847
-1.2273410304 -3.2987700490 1.9841532635
-1.1243405415 -3.4421302132 1.8591333998
-1.0361418339 -3.5778463009 1.7481437762
-1.1948681962 -3.3095648449 1.9482469581
-1.1603393193 -3.3523398752 1.9104090896
-1.1237858140 -3.3949595724 1.8735093008
-1.1397768885 -3.3837023078 1.8832672946
-1.1424912069 -3.3981676980 1.8710318286
-1.0558279853 -3.5037275287 1.7827675016
-1.0302514688 -3.5350918970 1.7574172471
-1.0316412940 -3.5802577833 1.7206937618
-1.0503489566 -3.5843465194 1.7170045302
-1.2018867565 -3.2721747098 1.9471692381
-1.1019417845 -3.3939246473 1.8409867354
-1.1344410844 -3.3716105402 1.8600420647
-1.1504708160 -3.3603392263 1.8698055452
-1.0790295121 -3.4250601072 1.8148620932
-1.0320480920 -3.5320469773 1.7270118975
-1.0231908997 -3.5525316902 1.7105039748
-1.0415445489 -3.5415981997 1.7189713337
-1.2749852896 -3.1102093549 2.0536387160
-1.2605665483 -3.1408899371 2.0250215355
-1.1883803215 -3.2170321796 1.9545600786
-1.1962843684 -3.2449022013 1.9302328336
-1.1493827274 -3.3125232794 1.8708542653
-1.0824003943 -3.4056436397 1.7920094687
-1.0154110845 -3.5081984889 1.7086064775
-1.1247011816 -3.2342967163 1.8920330165
-1.1987121243 -3.1795856290 1.9407839531
-1.2130707533 -3.1684440968 1.9509669427
-1.1123815114 -3.2591816152 1.8706134765
-1.1880387011 -3.2045814452 1.9186228077
-1.1842334681 -3.2241279313 1.9014974979
-1.0158336924 -3.4150135557 1.7412246093
-1.3625065131 -2.8788385237 2.1705456447
-1.2656038078 -2.9924473910 2.0574198485
-1.2526635316 -3.0221088376 2.0296875665
-1.2710996213 -3.0242541730 2.0285658294
-1.2837843189 -3.0131012857 2.0393634204
-1.1434927399 -3.1603043941 1.9039927630
-1.1321850512 -3.1848721780 1.8826806988
-1.0971926767 -3.2253130288 1.8480163704
-1.1278316084 -3.2042251734 1.8660511534
-1.3622466740 -2.8167652174 2.1676627154
-1.3619097739 -2.8581767743 2.1278509550
-1.3727070153 -2.8469504812 2.1394248810
-1.1425743611 -3.0845950520 1.9119970436
-1.1884803178 -3.0668421951 1.9284895846
-1.1096974358 -3.1572154318 1.8494200284
-1.0323115593 -3.2702332864 1.7557251055
-1.3048200087 -2.8251250643 2.0914174242
-1.3674957413 -2.7600507875 2.1584751223
-1.3733933179 -2.7954626701 2.1249229991
-1.2386529875 -2.8274865060 2.0205846968
-1.3047492712 -2.7648450295 2.0830730121
-1.3457896316 -2.7222631785 2.1269427053
-1.2035365422 -2.8763072008 1.9747908861
-1.3437172490 -2.7451959433 2.1049237347
-1.1780758456 -2.9148879532 1.9396231115
-1.1507459134 -2.9534689611 1.9051238587
-1.3801343771 -2.7480304332 2.1055443873
-1.3903352933 -2.7370403426 2.1170068906
-1.0133252889 -3.1594280970 1.7325021400
-1.0212218528 -3.1546318472 1.7362719248
-1.0068778938 -3.1786591447 1.7171390054
-1.0148955373 -3.1738655360 1.7208618323
-0.9836994273 -3.2074749225 1.6945826119
-0.9595563253 -3.2362475832 1.6724306877
-0.9691391501 -3.2757573462 1.6409953542
-1.2990327273 -2.7011965395 2.0747452733
-1.3399801296 -2.7403072398 2.0420655551
-0.9714171130 -3.2717000019 1.5862375545
-1.2999220022 -2.6010180848 2.0978758828
-1.3497105275 -2.5885149538 2.1154662854
-1.3443151715 -2.6162569803 2.0883547385
-1.3074570752 -2.6757199151 2.0288814430
-1.3383571366 -2.6848767145 2.0234456911
-1.3351624622 -2.7081115553 2.0017446018
-0.9364437422 -3.1778169494 1.5986881684
-0.2260823068 -2.4333621317 2.1175428712
-0.3066830447 -2.4384363501 2.1095248607
-1.3099765346 -2.5878438983 2.0362150970
-1.3386474643 -2.5566538626 2.0688458312
-1.3376573531 -2.5792062992 2.0474548333
-1.3472202750 -2.5687026285 2.0584767445
-1.3158646991 -2.6229229797 2.0044042301
-1.3260458758 -2.6124554624 2.0151551943
-1.3556734199 -2.5808330328 2.0480382153
-1.3204542085 -2.6585562112 1.9722960396
-1.3519744650 -2.6267401518 2.0047680514
-1.3771803850 -2.5999639277 2.0325691464
-0.2397148196 -2.3745264262 2.0834072231
-0.2716366854 -2.3738876739 2.0822731298
-0.3120232496 -2.3683144691 2.0848955701
-0.3792717873 -2.3923224539 2.0654588307
-0.4819599575 -2.3778563796 2.0768369668
-1.2717199767 -2.5143724536 2.0205586777
-1.3081664156 -2.4959416649 2.0422717763
-1.3172515767 -2.4856827391 2.0531280916
-1.2657889446 -2.5817499240 1.9582593797
-1.2912499761 -2.5562039166 1.9842774888
-1.3205771967 -2.5252421724 2.0163594519
-1.3300510973 -2.5148521261 2.0272569704
-1.2888602345 -2.5789459212 1.9632697943
-1.2990955689 -2.5686294520 1.9737936694
-1.3420210957 -2.5444858407 2.0010441716
-1.3451881567 -2.5621225278 1.9850685103
-0.2467580892 -2.3478310964 2.0283406804
-0.5409384020 -2.3675068874 2.0103483875
-1.2814961720 -2.4293697496 2.0223338080
-1.2624494338 -2.4715600785 1.9806601067
-1.2903008461 -2.4412960076 2.0123107756
-1.2989880871 -2.4533041256 2.0022171970
-1.3035778760 -2.4481948824 2.0076006574
-1.3075570318 -2.4653937554 1.9920538599
-1.3122248557 -2.4602478183 1.9974598556
-1.3194730895 -2.4950259196 1.9660973144
-0.2544001034 -2.2783014266 2.0080692931
-1.2688832578 -2.4503553296 1.9275577375
-1.3307506340 -2.4689161992 1.9183478628
-1.3437898060 -2.4761040239 1.9134108215
-0.4622624296 -2.2555009458 1.9496456928
-1.2680471053 -2.4631737638 1.8393961999
-1.2646610426 -2.4864137416 1.8183096491
-1.3016997001 -2.4496314263 1.8556362089
-1.2826898946 -2.4888143543 1.8182168291
-1.2881013222 -2.4835364023 1.8235382757
-1.2491066133 -2.3814690707 1.8298939441
-1.2917215147 -2.3570451559 1.8578910720
-1.2775971644 -2.4140337212 1.8038994488
-1.2851796961 -2.4267856367 1.7933109707
-1.2541228027 -2.2792099803 1.8482165709
-1.2704791715 -2.3264685902 1.8061993665
-1.2801414396 -2.3157272341 1.8175125750
-1.2378976738 -2.3817688390 1.7514208007
-1.2586375478 -2.3603976283 1.7733874358
-1.2787545055 -2.3388766318 1.7957829442
-1.2968915986 -2.3404795538 1.7966960288
-0.8347142761 -2.8622184290 1.3406965387
-0.8606319002 -2.8784378353 1.3283333781
-0.1764767781 -2.0860013605 1.8600132716
-1.2462150724 -2.2672496086 1.7881978954
-1.2549030536 -2.2794029847 1.7778717606
-1.2596152192 -2.2739972360 1.7836191622
-1.2682639324 -2.2861956601 1.7732451324
-1.2620583563 -2.3148885487 1.7455045384
-1.2719220496 -2.3039553724 1.7570094466
-0.1440403541 -2.0559646208 1.8240540100
-1.1900613144 -2.2086657129 1.7710775465
-1.2240132938 -2.1662904665 1.8171995856
-1.2280780334 -2.1609652182 1.8230679591
-1.2484638708 -2.2065004878 1.7811201666
-1.2488110028 -2.2292326085 1.7590576652
-1.2048787935 -2.3011803360 1.6851622557
-1.2133144477 -2.1250466705 1.7946558815
-1.2171731026 -2.1196741718 1.8006629740
-1.2293835402 -2.1529907108 1.7686545307
-1.1956906766 -2.2189508430 1.6990952489
-1.2498246880 -2.1986237876 1.7258517095
-1.2627864857 -2.1819351006 1.7441625484
-1.2316340874 -2.2438040911 1.6793200269
-1.2501457009 -2.2215495088 1.7032987500
-1.2591521740 -2.2103787702 1.7154370768
-1.2638034386 -2.2278462198 1.6988404053
-0.8352524465 -2.7146477286 1.2463912015
-0.8431439103 -2.7098132212 1.2502154201
-0.8528303889 -2.7194783170 1.2425461787
-0.1212353342 -1.9613745921 1.7951237210
-1.2351653542 -2.1922466483 1.6687035287
-1.1894613313 -2.0820642566 1.7175166953
-1.1963420435 -2.0983246151 1.7011661535
-1.2171115082 -2.1201277445 1.6806953628
-1.2250720126 -2.1593618482 1.6408383068
-1.2454830661 -2.1308745798 1.6727080561
-1.2596688450 -2.1362479975 1.6687144027
-1.2714889208 -2.1189536352 1.6882666645
-1.2014915988 -2.0677368925 1.6778418117
-1.2297992639 -2.0498002113 1.7004911895
-1.2364511732 -2.0384098070 1.7137741228
-1.2557224565 -2.0927836021 1.6564485282
-0.8123810859 -2.6400708436 1.1111852593
-1.1664002657 -2.0460412846 1.6447161289
-1.1989693814 -2.0492186003 1.6441786576
-1.2242221986 -2.0033795447 1.6981767010
-0.0923117855 -1.8710796855 1.7205166820
-0.1140247817 -1.8883861680 1.7037013957
-1.2062130866 -1.9420169119 1.7186001947
-1.2003024780 -2.0242002965 1.6224558370
-1.2447617208 -2.0359718142 1.6124888926
-0.7885513627 -2.5577858315 1.0655539445
-0.8135957684 -2.5553986621 1.0672513260
-0.8177239812 -2.5686592407 1.0549156279
-0.7490698623 -2.4893273064 1.0800471648
-1.1535214324 -2.0313548554 1.5650895373
-1.1863161586 -2.0001851921 1.6032467134
-1.1946869536 -1.9826761797 1.6243284098
-1.2077058198 -1.9534848258 1.6598115272
-1.1831292201 -2.0389855823 1.5580618956
-1.1924081852 -2.0213554838 1.5789851274
-0.7899975410 -2.5070027333 1.0621862899
-1.2072881361 -2.0250263382 1.5756428084
-1.2132905972 -2.0131685115 1.5898008985
-1.2311738938 -2.0107638851 1.5937384160
-1.2397522292 -1.9928207649 1.6153427991
-0.8196711475 -2.5168617266 1.0520709565
-0.0661785495 -1.8452226615 1.6967714248
-0.7533825961 -2.4701690100 1.0550521818
-0.7650559251 -2.4774773715 1.0475434901
-1.1949863972 -1.9292295181 1.6476084294
-1.2016101349 -1.9116728275 1.6693808428
-0.7818826256 -2.4973818113 1.0275879001
-1.1883170838 -2.0181115542 1.5412078250
-0.0731898414 -1.8423640919 1.6810391597
-0.7528456558 -2.4564969136 1.0321000224
-1.1561339821 -1.9385623274 1.6000139270
-1.2000138080 -1.9085587342 1.6384759697
-1.1808950730 -1.9945401308 1.5335348378
-0.0708896997 -1.8553613195 1.6509901952
-0.7354804023 -2.4424646215 1.0177206882
-0.7416032209 -2.4372460796 1.0227058799
-0.7474053701 -2.4493579825 1.0102149620
-0.7530678976 -2.4615442945 0.9976716835
-0.7593303379 -2.4562513435 1.0027092359
-1.1573036315 -1.9378064525 1.5732267630
-1.1704753018 -1.9025421295 1.6170062792
-1.1764156652 -1.8849310939 1.6390979571
-1.1725176348 -1.9404151450 1.5704360578
-1.1837050689 -1.9107819330 1.6071821300
-0.7704112187 -2.4807852781 0.9774882306
-0.7768143218 -2.4754185034 0.9825769659
-1.1726036200 -1.9788991308 1.5237257221
-1.2053174455 -1.9396065024 1.5722924654
-0.7875087300 -2.5001867576 0.9571720348
-1.2027856425 -1.9846998539 1.5174301712
-1.2228923583 -1.9360929310 1.5770758133
-1.2333736479 -1.9508499150 1.5592732366
-0.0606307265 -1.8315738459 1.6663310591
-0.7551362973 -2.4508648818 0.9861815113
-1.1851913257 -1.8681215219 1.6397239248
-0.7600703501 -2.4805727992 0.9557369090
-1.2044490520 -1.9080979972 1.5900333220
-0.0487304844 -1.8224398910 1.6747556626
-0.7154813775 -2.4204867617 1.0091128652
-0.7457457485 -2.4283867184 0.9993995815
-0.7639281155 -2.4295923760 0.9972252632
-1.1798815995 -1.8678600791 1.6328140827
-1.1815216639 -1.8619474192 1.6403578465
-0.7569068181 -2.4871673270 0.9385346434
-1.1843828794 -1.9054797821 1.5854615251
-1.1882298855 -1.8935272529 1.6005211343
-1.1891902070 -1.9377234500 1.5453921608
-1.2017114867 -1.9015381261 1.5906708969
-1.2066974302 -1.9339671479 1.5502827338
-0.0506562685 -1.8405502782 1.6629476944
-0.7195494565 -2.4048029366 1.0282093892
-0.7206010388 -2.4215363802 1.0107683431
-0.7329177940 -2.4279563367 1.0034785619
-0.7397850390 -2.4567143443 0.9733670139
-0.7457443486 -2.4514205358 0.9785142153
-1.1686937946 -1.8651451161 1.6452613172
-1.1728798338 -1.9080928091 1.5906508546
-1.1678184859 -1.9698202419 1.5135249628
-1.1700858512 -1.9638294878 1.5209516472
-1.1807354662 -1.9782429025 1.5032664379
-1.1897805436 -1.9540879145 1.5332458853
-0.0393244655 -1.8336603195 1.6797964583
-0.0478890153 -1.8509277697 1.6589341950
-0.0501604326 -1.8460548147 1.6648223187
-0.7087254772 -2.4113215883 1.0265333576
-0.7266884578 -2.4124353155 1.0245213802
-0.7337078156 -2.4238412660 1.0122723173
-0.7392276253 -2.4186500130 1.0174357595
-1.1564765361 -1.8990634322 1.6123621637
-1.1483346982 -1.9770825589 1.5139369857
-1.1891528813 -1.9516796907 1.5461575157
-1.1981498918 -1.9218203662 1.5839983248
-0.0421945738 -1.8452931860 1.6708724285
-0.7312097373 -2.3920444003 1.0495710749
-0.7283624185 -2.4133297274 1.0273057270
-0.7336128384 -2.4082396555 1.0324264293
-0.7388268202 -2.4031394065 1.0375741652
-1.1398755472 -1.9192841358 1.5953405725
-1.1750678993 -1.9051295705 1.6141833163
-1.1748051617 -1.9652140482 1.5376395337
-1.1833091649 -1.9358696384 1.5749486860
-1.1878303569 -1.9183013607 1.5974893921
-0.0340798582 -1.8414080624 1.6799947679
-0.7085235599 -2.4335830038 1.0116636453
-0.7157865072 -2.4448297943 0.9996508841
-0.7353889708 -2.4624812310 0.9804673427
-1.1617431668 -1.9137764737 1.6126996498
-1.1661733575 -1.8910690328 1.6423398986
-1.1760620769 -1.9209197196 1.6038049131
-1.1764869550 -1.9804265227 1.5278756021
-1.1782151072 -1.9746067824 1.5352600695
-1.1903119285 -1.9281636097 1.5947964899
-1.1916073663 -1.9223749193 1.6022930991
-1.1919062409 -1.9823654857 1.5257436423
-1.1936487943 -1.9764972476 1.5331896469
-1.1985864215 -1.9589102280 1.5556071114
-1.2016360354 -1.9472018841 1.5706162687
-0.7447728902 -2.4677062005 0.9812730038
-1.1801474488 -1.9022190283 1.6399180999
-1.1763109616 -1.9894286685 1.5275039829
-1.1917541980 -1.9913231130 1.5255098074
-1.2120253115 -1.9756503490 1.5459451259
-0.0460683923 -1.8550618249 1.6732313639
-0.0466067705 -1.8528901597 1.6760250205
-0.0598052902 -1.8634605844 1.6630004238
-0.7724787049 -2.4687098630 0.9871276398
-1.1912623845 -1.9133627526 1.6383469578
-1.2098822951 -1.9790902427 1.5537685771
-1.2306979273 -1.9574550010 1.5823050695
-0.0513718299 -1.8629986743 1.6619233128
-0.7332877933 -2.4471705363 1.0140514884
-0.7638797130 -2.4545006981 1.0057057171
-0.7477083501 -2.4462599814 1.0095363431
-0.0566662665 -1.8505389266 1.6404755943
-0.7481016216 -2.4408428267 1.0021781325
-0.7608207845 -2.4471596646 0.9955163264
-1.1670483137 -1.9442738623 1.5811402610
-1.1981261704 -1.9476633188 1.5785105764
-0.7725218976 -2.3946140157 1.0288131676
-0.7752995123 -2.4109791742 1.0120063143
-0.7904831165 -2.4338381906 0.9885215113
-0.8241897853 -2.4192918981 1.0031542739
-0.8159523289 -2.4465405662 0.9753228103
-1.2059036383 -1.9063009778 1.6054459084
-0.7476323637 -2.4187462887 0.9769459480
-0.7601188798 -2.4253790551 0.9701523824
-0.7710598894 -2.4150720332 0.9804107529
-0.7818539396 -2.4047219835 0.9907808788
-0.7726053958 -2.4320118215 0.9633588167
-1.2092362041 -1.9226539154 1.5483200023
-0.0571580498 -1.8034898798 1.5762569222
-0.7528955844 -2.3986789871 0.9633697050
-0.7833998326 -2.4069452954 0.9548606909
-0.7958171561 -2.4136810465 0.9480416775
-0.7724537288 -2.3707870104 0.9516783151
-0.7727239181 -2.3884377487 0.9342755451
-1.1735310203 -1.8453456557 1.5446378086
-1.1917264401 -1.8864763442 1.4954988416
-1.2113980699 -1.8771021045 1.5083162645
-0.7458270525 -2.3543562633 0.9240532807
-1.1257388081 -1.8742052006 1.4483751039
-1.1891093693 -1.8412131027 1.4921673254
-0.7281944621 -2.3376241747 0.8916833648
-0.7480982131 -2.3210327322 0.9073764246
-1.1410399377 -1.8391429335 1.4294266777
-1.1731422940 -1.8053348358 1.4715193442
-0.0395749532 -1.6676927750 1.4970477982
-0.0420347211 -1.6647539611 1.5002088428
-0.0556782050 -1.6703105372 1.4948200564
-0.7328974210 -2.2602825958 0.9120668385
-0.7176716808 -2.2901846503 0.8835303796
-0.0331693577 -1.6288969615 1.4725568097
-0.0520872026 -1.6283994815 1.4736377010
-2.0916599790 -2.3833829604 0.7518847832
-0.0225818812 -1.5864241976 1.4479836302
-0.0388846381 -1.5890526068 1.4457199326
-1.9504091912 -2.3028547476 0.6142604227
-2.2664730184 -1.2141624614 1.8112252818
-1.4175212618 -1.5338815433 0.2967105914
-1.4265397799 -1.5239377490 0.3071574094
-1.4163320951 -1.5755632479 0.2534234837
-1.5311225315 -1.5449980235 0.2596166247
-1.4729847056 -1.6483579798 0.3102595062
-1.5896072370 -1.7614355688 0.2555127669
-1.6148675268 -1.7750437563 0.2428252997
-1.4671121974 -1.9608716117 0.0627574815
-1.6732829255 -1.7755840558 0.2437760122
-0.8405873012 -2.4027710160 -0.3131852417
-1.6579764702 -2.0437206057 0.3531164951
-1.7528036362 -2.0678201196 0.3323613197
-1.8605973515 -2.0035730784 0.3975757388
-1.5264403190 -2.0047088365 0.4748072670
-0.7138212453 -2.7355975095 -0.1389488122
-2.3679034201 -1.4543163966 1.1006790748
-1.7864157357 -2.1905343262 0.3040969385
-1.7037797974 -2.1885122941 0.3819257283
-1.8052167874 -2.3319547223 0.4096548769
-1.7011989079 -2.3388040939 0.5433810861
-1.2000300583 -2.9018403495 0.0528838278
-1.8806390865 -2.4166465398 0.4765408142
-1.7437951102 -2.2910886197 0.5842111383
-1.7631433636 -2.3486410002 0.5311020686
-1.8042002569 -2.3100136667 0.5695278995
-1.8088374243 -2.3437627706 0.5379373862
-1.1836285751 -2.4320705850 0.3473085097
-1.7418791137 -2.2252962758 0.5568172523
-0.7259507647 -2.8010227056 -0.0540088792
-1.6439399761 -2.0063688498 0.5280038552
-1.4707860049 -1.8680782071 0.5460893936
-1.4875434019 -1.8907484685 0.5245279149
-1.2858671485 -1.7883020195 0.5041170251
-1.4642910905 -1.8597679459 0.3700701471
-1.2306461404 -1.7729417638 0.2966622988
-1.4641007235 -1.9569654188 0.0457930652
-1.3969164030 -1.9642298137 -0.1182210775
-1.1474429001 -1.8592605701 -0.1557579432
-1.2659440213 -2.2151307310 -0.6653156853
-1.1492580577 -2.0618001861 -0.3882273985
-1.1781639229 -2.2693908627 -0.5139035830
-1.3485758013 -1.7470701857 -0.5324199313
-1.5391496194 -1.8482785921 -0.6092290409
-1.3284417863 -1.6448080992 -0.4795915955
-1.8309726554 -1.3782065712 -0.2654155205
-1.3612405920 -1.5789660156 -0.4898093337
-1.3247246046 -1.6898021427 -0.5858663937
-1.5834617542 -1.4988216336 -0.4309562868
-1.6118203427 -1.5652984331 -0.4900665355
-1.6335767204 -1.5463418513 -0.4717840491
-1.6699659683 -1.5692763506 -0.4908723767
-2.2194531904 -0.8131131876 0.3245544633
-1.5790123203 -1.3861679303 -0.2418353068
-1.7032785558 -1.5003273504 -0.3390522644
-1.7344010744 -1.6235895914 -0.2866081502
-1.7737960480 -1.6631612395 -0.3199417564
-0.5123502952 -2.5026349038 -0.8872866354
-1.6447004479 -1.8178283039 -0.3225891924
-1.7403400377 -1.9502821878 -0.3857683078
-1.5598435148 -2.1856109098 -0.3953042449
-1.1853536447 -3.0534713555 -0.4779376349
-1.1331974068 -3.1234562751 -0.4396472657
0.8218842074 -3.2213345663 0.4921303209
-0.2489680324 -3.3655291250 -0.0794904757
-0.1791071017 -3.4867803583 -0.1325768925
-0.7316711177 -3.4669362985 -0.2931641532
-0.1395615539 -3.3914540051 -0.0933776799
-0.0873828941 -3.2513664212 -0.0265632813
-0.0516563469 -3.3302782014 -0.0667509581
0.2541102422 -3.0396411328 -0.0541964618
0.5050858007 -2.8170137262 0.0882318563
0.5550945882 -2.9004101944 0.0372313519
1.5845985049 -2.0093646521 1.2924650589
0.9111759585 -2.5587839505 0.2917434436
0.7907945197 -2.3998089862 0.3284003093
0.8872861969 -2.3619848855 0.3774222095
0.7364733753 -2.0819942516 0.4418308685
0.8033656582 -2.0516157925 0.4665125618
0.8303368388 -2.1106936024 0.4401697360
0.8734343085 -1.6953666683 0.4951114604
1.0927088010 -1.8048648054 0.3956547156
1.0340144437 -1.7284297671 0.3466613740
1.1283510249 -1.8107817399 0.3385034737
1.0096251732 -1.6654979882 0.2515601544
1.1822354264 -1.7426877041 0.1830265286
1.1526829247 -1.7440445608 0.1484858108
1.2301850965 -1.7787431397 0.1574919391
1.1736494405 -1.8006228247 0.1443118077
1.2042621809 -1.8693899654 0.0885519696
1.2510478043 -1.9085049689 0.0737848008
1.4088221291 -1.8440443823 0.2355922838
1.1324677154 -2.2407871306 0.2486949734
0.9510622949 -2.4642259660 0.3936948599
0.9337463561 -2.6566174369 0.5795030924
1.3589465656 -1.9179512301 2.1911280125
0.5552319922 -2.8938641405 1.4054348947
0.4094270860 -2.8706858790 1.3603263078
0.3715949460 -2.9083619968 1.4462695937
0.2532727436 -2.8246428383 1.5437925339
-1.2053516242 -1.7308659777 1.4415409703
0.2476034328 -2.8161671603 1.6032462674
0.3221016363 -2.9300017340 1.6536579592
0.2576557999 -2.9033898204 1.6636138575
-1.2295107059 -1.7746346567 1.5067414193
0.2158008466 -2.8872985085 1.7126714477
0.2552157330 -2.9424070017 1.6926628107
0.0970491107 -3.1737690654 1.3283315621
0.4328750386 -2.1793096408 2.8472558491
-1.2122892302 -1.8023325668 1.5000853305
0.2188034663 -2.8779615146 1.7311958339
-1.2314762843 -1.7719749970 1.5149462134
-1.2039110919 -1.8160246636 1.4954044571
-1.2087592648 -1.8234988378 1.4833917180
-0.0240446051 -2.7098425091 1.6754833166
0.0788115275 -2.7789021797 1.7004383035
0.1461126502 -2.8780115599 1.6609591162
0.2219296354 -2.9019982207 1.7070513177
0.2367373524 -2.9378146344 1.6838768500
-1.2371297803 -1.7749075115 1.5146800867
-1.2577387555 -1.7708182585 1.5147289731
-1.2107479096 -1.8129870863 1.5141909003
-1.1816279668 -1.8814671749 1.4710768304
0.2667748761 -3.0258905597 1.6143542869
0.3332838277 -3.0666427151 1.6329071200
-1.0792551902 -2.1098814132 1.3901659591
-0.8384250289 -2.5935559211 1.1489772169
-0.8155950322 -2.5966406613 1.1628383444
-0.8524681673 -2.6134413108 1.1560719234
-0.8358443086 -2.6209885753 1.1614617941
-0.8251575220 -2.6241869542 1.1969692031
-0.8085375081 -2.6317120317 1.2022832095
-0.7432520244 -2.6056320120 1.2712224263
-0.8652795600 -2.6537429512 1.1678075005
-0.8718795236 -2.6573897461 1.1604310296
-0.7830961303 -2.6582333814 1.2199167077
-0.7959392725 -2.6661041969 1.2044976789
-0.8282284183 -2.6351418816 1.2250432065
-0.8479787677 -2.6803224634 1.1749608902
-0.8148662642 -2.6967779144 1.1832951923
-0.8216603061 -2.7004193456 1.1758566496
-0.8655159842 -2.6875515453 1.1718452170
-0.8326979997 -2.7048066254 1.1788856287
-0.3210220894 -2.3345020196 1.9187563879
-0.3296589854 -2.3516395707 1.8920995930
-1.2358559126 -1.9005460299 1.5899580542
-0.8109139243 -2.6906364774 1.2156301394
-0.3771503499 -2.3422436591 1.8594206081
-0.3582260364 -2.3408687920 1.8775759226
-0.7850325764 -2.7112391695 1.2155460393
-0.8107799066 -2.6836273866 1.2322090161
-0.3578970034 -2.3334120526 1.8853513793
-0.8282300311 -2.7234544427 1.1901920461
-0.7760048906 -2.7166803378 1.2276922860
-0.8119678920 -2.7325744754 1.1929671708
-0.7775127583 -2.7659523032 1.1878892313
-0.8875019230 -2.6946872047 1.1945452141
-0.3367422120 -2.3427430152 1.9041567629
-0.2994241360 -2.3101786797 1.9718121563
-0.7802846868 -2.7146081552 1.2436045610
-0.3020469659 -2.3459532054 1.9312010881
-0.2993513139 -2.3711743180 1.9070053817
-0.3131778632 -2.3920525736 1.8733476335
-0.8823274467 -2.7134349279 1.2101944335
-0.8103140997 -2.7643950389 1.2136992064
-0.7632391672 -2.7772307390 1.2320184671
-0.8340138695 -2.7255378179 1.2640637433
-0.8696597822 -2.7390169169 1.2327730667
-0.8540050511 -2.7488126771 1.2345188840
-0.8612575865 -2.7514727171 1.2282658106
-0.7953548339 -2.7416870130 1.2749189125
-0.7794300593 -2.7510433902 1.2773655655
-0.7527456736 -2.7878348605 1.2651645760
-0.7584843014 -2.8061063464 1.2475999941
-0.8723035680 -2.7632616200 1.2539184883
-0.7941119721 -2.7482974333 1.3121486587
-0.8011342984 -2.8146557209 1.2570774300
-0.7565219214 -2.8125752915 1.2855751219
-0.7780148671 -2.8213439289 1.2658262978
-0.8591985933 -2.8048826696 1.2767320069
-0.7822179460 -2.7895725411 1.3350660677
-0.7846654221 -2.8227897080 1.3079817779
-0.7415344782 -2.8202570255 1.3366327631
-0.7688718511 -2.8321794694 1.3104557431
-0.7461024723 -2.8385068358 1.3196370469
-0.7739381357 -2.8502985936 1.2934614319
-0.7809861092 -2.8531766336 1.2869817808
-0.2712666189 -2.4617095371 2.0174257665
-1.2935598348 -1.9683674466 1.7094125448
-0.8149323760 -2.8722989573 1.3037721689
-0.2848014025 -2.4915805698 2.0463917764
-1.2821723987 -2.0127108211 1.7407704868
-0.9046987286 -2.8402124901 1.3291644610
-0.9111029263 -2.8427464558 1.3233883181
-0.9175384435 -2.8452549935 1.3176359346
-0.8808783550 -2.8624298767 1.3268444626
-0.8415205854 -2.8941803911 1.3268289936
-0.8105934600 -2.9132599044 1.3313669816
-0.2806215902 -2.5132907489 2.1104305711
-0.2897628845 -2.5341899816 2.0784205129
-0.2794908493 -2.5483956061 2.0724156700
-0.2414543651 -2.5754548772 2.0783784367
-1.2638833634 -2.0712094950 1.7721445544
-0.8615629220 -2.8357549508 1.4195849079
-0.8579237250 -2.8506666039 1.4102892936
-0.8872837807 -2.8644079104 1.3808873331
-0.9174457523 -2.8775468698 1.3520267222
-0.8963348696 -2.8846692640 1.3596942291
-0.8144968407 -2.8962145665 1.4028248642
-0.8447096632 -2.9105573473 1.3722906551
-0.2759041381 -2.6033874015 2.1072066901
-0.2226471847 -2.6331813378 2.1249234954
-0.8669986313 -2.8882064820 1.4399690217
-0.8946496144 -2.9022429859 1.4107726901
-0.9231032794 -2.9157037588 1.3820808337
-0.8112055354 -2.9781657629 1.4059137947
-0.3821184281 -2.5995160198 2.1100099811
-0.3436609279 -2.6254351721 2.1179944097
-0.3308417612 -2.6340748895 2.1206558859
-0.2923842610 -2.6599940417 2.1286403144
-0.9297856697 -2.9679695761 1.4074479068
-0.8620174169 -2.9663931248 1.4538563348
-0.8415638411 -2.9722403376 1.4631301211
-0.8117395856 -3.0077214669 1.4549977093
-0.8239011373 -3.0319490498 1.4273254839
-0.8029320572 -3.0376757314 1.4369494796
-0.3470319716 -2.6618439845 2.1868683065
-0.8992746555 -3.0067666268 1.4792082181
-0.8130714726 -3.0613786783 1.4951234066
-0.8277641368 -3.0156985800 1.6207789447
-0.9228383929 -3.0842355459 1.4925115649
-0.8167081498 -3.0267608494 1.6195745548
-0.8773697567 -3.1098127179 1.5037641579
-0.3823706395 -2.8136846054 2.2388742798
-0.2754401796 -2.8594170386 2.2946609307
-0.2794937413 -2.8827227396 2.2611622394
-0.8126987882 -3.0876463251 1.6791705092
-0.8792748844 -3.1447625431 1.5768056229
-0.7642516893 -3.0599132687 1.7447083311
-0.8639864181 -3.1525680563 1.5816083218
-0.8654387704 -3.1923955795 1.5464519517
-0.6269871677 -2.9714386699 1.9557515545
-0.8912136968 -3.2573264750 1.5828634618
-0.7293428440 -3.1103905724 1.8529110651
-0.7415346073 -3.1275037486 1.8250157420
-0.7577052561 -3.1485152721 1.7903359394
-0.8325089585 -3.2280688571 1.6541728190
-0.6945889757 -3.0849194704 1.9104431012
-0.8314709738 -3.2688155156 1.6186527696
-0.6406174527 -3.0482298449 2.0003487701
-0.6258246003 -3.0525086344 2.0098283602
-0.6153650630 -3.0663530850 2.0046033932
-0.6198697029 -3.0759552960 1.9897872699
-0.3176294347 -3.0279787866 2.3552438892
-0.8666474627 -3.3196294109 1.6637199001
-0.8416637849 -3.3540266360 1.7751270761
-0.7825958607 -3.3043807350 1.8745848105
-0.8226372320 -3.3560425228 1.7892154191
-0.8853273312 -3.4207871953 1.6777510086
-0.7442103733 -3.2735482015 1.9407710120
-0.7554284426 -3.2918015985 1.9116561649
-0.7642993208 -3.3053192331 1.8898934726
-0.7799487745 -3.3275104483 1.8537779497
-0.8294312839 -3.3872808232 1.7538799120
-0.8450758817 -3.4036859147 1.7257227560
-0.7264327430 -3.2737720124 1.9568767741
-0.7402422163 -3.2969021897 1.9201284679
-0.7678627246 -3.3374882215 1.8544341860
-0.7812660385 -3.3550747291 1.8254544423
-0.6555788727 -3.2336207775 2.0675998062
-0.6148169278 -3.2103158177 2.1343371617
-0.6165702695 -3.2155001694 2.1265806402
-0.5481202707 -3.1903159857 2.2259140761
-0.5314920948 -3.1818053624 2.2536194438
-0.4985964865 -3.1579565080 2.3182898908
-0.4855692726 -3.1656671222 2.3224005276
-0.3875878799 -3.1333682331 2.4722411965
-0.3750780302 -3.1592563923 2.4511703510
-0.9002602056 -3.4497634287 1.7477459775
-0.7785914211 -3.4009333545 1.8985564226
-0.6742153181 -3.3432251189 2.0553875457
-0.3692813675 -3.2144560440 2.5321749037
-0.7779283166 -3.4427341431 1.9525045340
-0.7408587725 -3.4093844430 2.0216342183
-0.7362311627 -3.4332526802 2.0004734495
-0.5854456595 -3.3385568738 2.2546832512
-0.5651184139 -3.3128628845 2.3072944576
-0.5521121122 -3.3207773436 2.3110702568
-0.5568628504 -3.3435755633 2.2780199420
-0.5380381006 -3.3229184920 2.3231671271
-0.4503677019 -3.2906476680 2.4589452217
-0.4372849694 -3.2979511922 2.4635884806
-0.4098187614 -3.2552639517 2.5521271167
-0.6847119452 -3.4306814454 2.1337645743
-0.6603913506 -3.4078007687 2.1839055064
-0.6088583170 -3.3894131720 2.2575543952
-0.5918374451 -3.3807685602 2.2855069157
-0.5931437045 -3.3863967097 2.2773000982
-0.5788565260 -3.3888422383 2.2890241121
-0.5590016981 -3.3623713016 2.3425040958
-0.5622065151 -3.3796992598 2.3175292419
-0.5469937037 -3.3760184711 2.3380089144
-0.5329372644 -3.3780030666 2.3502842018
-0.5147790056 -3.3500631027 2.4051771905
-0.5017093724 -3.3576179936 2.4094395277
-0.4585194926 -3.3305774455 2.4920018345
-0.4449692250 -3.3251595382 2.5142753461
-0.4320191825 -3.2874859960 2.5806895293
-0.4316003859 -3.3131349526 2.5455689291
-0.5648235653 -3.4139548125 2.3445397969
-0.5034036567 -3.3725549262 2.4632140840
-0.5050001656 -3.4183651442 2.4616345036
-0.4370002693 -3.3713599067 2.6001453459
-0.4112236264 -3.3717354337 2.6286687935
-0.4099690026 -3.3865634156 2.6601201398
0.4131652509 -4.0809941476 2.6317690834
0.4932230331 -4.1188920854 2.6675550621
-0.4312249378 -3.4115263361 2.6416465166
-0.4251391063 -3.4340340516 2.6495557669
0.4324825880 -4.0831871888 2.7117790496
-0.4061310401 -3.4342255550 2.6974289643
0.4655179183 -4.0480370083 2.8964199192
0.1674899935 -3.1862656545 4.0194795166
0.5302711090 -4.0216452554 3.0491756150
0.5536882769 -3.9403832154 3.2203719139
0.6110985454 -4.0057096591 3.1899139520
0.5111906129 -3.8854385552 3.2635144272
0.5880515014 -3.9106411900 3.3143824001
0.7161391930 -3.6121964676 3.8042916783
0.3589046608 -3.4464444459 3.5991841604
0.5930297228 -3.3706029699 4.0269742670
0.7153420840 -3.5482862423 3.8352838805
0.6424173600 -3.4548154736 3.8255934414
0.6263493799 -3.3382566593 4.0315477635
0.7161869691 -3.4536556411 3.9135770387
0.7069667571 -3.3417751435 3.8899671067
0.7647730108 -3.3320388318 3.9711172635
1.1187934510 -4.0039874860 3.1894776848
0.8302908508 -3.1098131222 3.9425930736
0.5423700128 -3.0159415583 3.7386294031
0.7759743584 -2.9821269106 3.9909326656
0.6763989896 -3.0365988103 3.9145591103
0.6662296002 -3.1030213591 4.0054608387
0.7588581099 -3.3581580774 4.0042974956
0.7141281007 -3.4171280875 3.9295922063
0.6082925643 -3.2738490252 4.1299307451
0.7684275561 -3.4101468418 4.0080427622
0.7352845046 -3.4729624061 3.9224117318
1.2371238231 -4.0933049279 3.2828895848
0.7886101889 -3.5137414758 3.9725376808
0.7102645005 -3.5231161231 3.9123358341
0.7827838666 -3.5768142213 3.9222986482
0.8334786385 -3.6529295385 3.8370631371
1.1424942160 -4.3136154753 2.9367800494
0.6450286065 -3.4251471748 3.9243922842
0.4800051714 -3.3355146977 3.7786727390
0.4497069463 -3.0081519891 3.9382366547
-0.1929164639 -2.5372807680 4.3938235213
0.5357525331 -2.9338418388 4.1156510407
0.4520791864 -2.8771766105 4.1367361047
0.5380701573 -2.8363764762 4.3000384050
0.0346942961 -3.1640793731 4.6302948428
-0.0937037555 -3.2181287340 4.5740437415
-0.3287137878 -3.2987655547 4.4078610590
-0.3529470667 -3.2868685371 4.4278271213
-0.3486843061 -3.2730341678 4.5220423749
-0.3393854308 -3.2560091308 4.6470025883
0.1062221411 -3.4137965326 4.5583870711
-0.5805275840 -3.1488676442 4.3836751330
-0.5948262756 -3.1000367332 4.6337056155
-0.5019379110 -3.1269392458 4.6416997394
-0.6325979483 -3.0427555899 4.5406427542
-0.5991477368 -3.0468039333 4.5696655876
-0.6262219828 -3.0325341472 4.6022204815
-0.5869952637 -3.0292174107 4.6773685718
-0.1211987836 -3.1889122139 4.6470659555
-0.5976194647 -3.0168625475 4.7244866873
-0.5659732703 -3.0265444773 4.7224968813
-0.6609059977 -2.9438697847 4.6147573253
-0.5964975961 -2.9594398109 4.6271874993
-0.8061658783 -2.7652151057 4.5901514496
-0.7611684127 -2.9162058334 3.9044747069
-0.7726503561 -2.8674277679 4.1995589549
-0.7960131584 -2.9980447279 4.1193942364
-0.7658700700 -3.0493147399 4.1766337802
-0.9663350120 -3.2109096431 4.0777156235
-1.0883264536 -3.1203158623 4.1164439329
-1.1252560192 -3.0368857450 4.1455452011
-1.1837957979 -2.6002196997 4.5517365145
-1.0836433035 -2.5867019518 4.5647880600
-1.0557895914 -2.5208968900 4.8306377396
-1.0747196048 -2.4932743540 4.9201707796
-1.0085040576 -2.5068572520 4.9251866994
-1.0585532332 -2.4925430273 4.9366817019
-0.2202299570 -2.6042988812 5.0403727254
-0.2097251951 -2.6004237524 5.0696792125
-0.1887156711 -2.5926734949 5.1282921867
0.3408856140 -2.8687304432 4.6120073610
0.9765135983 -2.8816791698 4.4693936252
1.3764480938 -3.3039967494 4.0664419939
1.4483201028 -3.3565602402 3.8823181069
1.4623601410 -3.4026063348 3.6802619519
1.5266985995 -4.1196481261 2.9301743531
1.5538134959 -4.4040726894 2.5829580077
1.5679871915 -4.1325440399 3.1756680439
1.3360558074 -3.3848872299 4.1363336777
1.9096872469 -2.6973008263 4.2874639863
2.2018292977 -3.0241910907 3.9424877008
2.0396441778 -2.8185108049 4.1747057850
2.1733422223 -2.9733784787 4.0095852453
2.2861390375 -3.0600323468 3.8075117585
1.9613022672 -2.6670481413 4.2460947562
1.9298192663 -2.6275578906 4.2963423893
2.1300544827 -2.8272700323 4.0933643665
2.0745065524 -2.7567410551 4.1776828412
2.4585254553 -3.2572038819 3.6268995230
2.5253585293 -3.3852934239 3.4746757428
2.3052989004 -2.9775763055 3.8109205924
2.0273352276 -2.6381059994 4.1989282862
2.3961015441 -3.0537100959 3.7593782538
1.9293812997 -2.5405439916 4.3049231898
2.0804672569 -2.6670020608 4.1919775728
1.9725916605 -2.5582756504 4.3097746040
2.3076297758 -2.8731501668 3.8171530711
2.3894234081 -2.9456514605 3.7595740683
2.1995532478 -2.7036287383 4.0372940283
2.4581889054 -2.9899850413 3.7424926092
2.1406782849 -2.6233920119 4.1394127413
2.2322107988 -2.7132772324 4.0485628463
2.4784563052 -3.0015614717 3.7402513060
2.4910079067 -3.0027095394 3.7495893169
2.1413977775 -2.6023188877 4.1814990776
2.2764514917 -2.7230108405 4.0702848206
2.3200015429 -2.7640862288 3.8165667274
2.2956175453 -2.7241623856 3.8685637391
2.3192339092 -2.7237602939 3.8892118023
2.3026147731 -2.6933830666 3.9308595661
2.3310420912 -2.7235592480 3.8995358338
2.3403710492 -2.7336519309 3.8889953614
2.0740188616 -2.4664561192 4.1669351250
2.1181623085 -2.4941174052 4.1505156411
2.3064751000 -2.6724884092 3.9726180683
2.0226146922 -2.3835228592 4.2858733188
2.0447663822 -2.3914251526 4.2887555082
2.1153633430 -2.4497499943 4.2338135829
2.2598573278 -2.5790880193 4.1076625770
2.1792756239 -2.4440805253 4.0571216422
2.2121367409 -2.4620598780 4.0492553015
2.2449227682 -2.4803085471 4.0409917479
2.2451505693 -2.4690160765 4.0617004939
2.1652167120 -2.3771756374 4.1695868295
2.2560723377 -2.4447158381 4.1143205631
0.7386317634 -1.2730427494 4.5217998740
-1.5650095747 -0.9872324010 4.1396061115
-1.4264952429 -2.6679180354 2.3086102110
-1.4241012405 -2.6954702053 2.2762809787
-2.3759979784 -1.9616494865 3.8037802980
-2.4388950723 -1.9283800732 3.8891119417
-2.4355324422 -1.7949884029 3.7186151020
-2.3255033691 -1.7533093203 3.6223009640
-2.7258676787 -1.8566640461 3.3910714995
-2.4464227110 -1.7059183804 3.7118995563
-2.4808077300 -1.7004141941 3.7207042329
-2.4917591756 -1.6952393102 3.7306714604
-2.5524407736 -1.6065881351 3.6121012140
-2.5400046178 -1.6013692867 3.6237278300
-1.4825123182 -2.5689153560 2.1565115212
-2.4493078687 -1.8747415745 3.6140026873
-1.3120556796 -2.6343696940 2.0939405492
-1.4154109405 -2.6406035046 2.0983408053
-1.4560524439 -2.5976969536 2.1844300353
-1.4771127179 -2.6023022274 2.1788872327
-1.2819089946 -2.7731416840 1.9078498758
-1.2928850307 -2.7656615636 1.9231973894
-1.4124643835 -2.6748529468 2.1131491522
-1.4204801105 -2.6661429242 2.1312472266
-1.3838995005 -2.6292544967 2.1950630642
-2.4197711045 -2.0549346397 3.6209242503
-2.5103228353 -2.0157926914 3.7232479969
-2.5211337347 -2.0031416926 3.7547542062
-1.2948362826 -2.6419459432 2.2271019432
-1.4109504000 -2.7154753636 2.2268531090
-1.4190780829 -2.7317329102 2.2462968252
-2.6147242512 -2.2698764774 3.7766516709
-1.3322427902 -2.7970421798 2.0763805239
-1.4601535771 -2.7259951359 2.2688808864
-1.4738876132 -2.7248381552 2.2763706698
-2.4294193928 -2.2544027203 3.5986359036
-1.4590350240 -2.6887682022 2.2340729106
-1.4783461971 -2.6669225007 2.2276289812
-1.4233780587 -2.6651246795 2.1619471938
-2.6369074019 -2.0330201876 3.6324531940
-1.3646528527 -2.5573793550 2.1045706302
-1.4053826737 -2.5664370400 2.0933422631
-1.4474979314 -2.5250799752 2.0962627095
-1.6495303631 -1.4997291439 4.2877751180
-1.2623049654 -2.5722248872 1.8522665658
-1.3150659696 -2.5136297804 1.9533578651
-2.7883736758 -1.8328552850 3.3865905019
-1.1839533554 -2.4465976021 1.6775033629
-1.1907267493 -2.4252415010 1.7044468796
-1.3522838916 -2.3148625381 1.8870819168
-1.6807850783 -0.2520287604 4.2440262247
-1.4600218346 0.0604430237 4.1616633586
-1.3382341700 0.0996963609 4.2592210833
-1.6238553698 0.0227476242 4.0532771114
-1.1148731066 0.2001180677 4.4813880640
-1.2323825224 0.2859255366 4.1424494269
-0.9018196073 0.3776296962 4.3868400142
-0.7707215719 0.4259994462 4.4989914358
-1.5156538162 0.2127344551 3.9385280055
-1.6094524050 0.1955993034 3.8801268551
-0.5190958106 0.5042876959 4.6941391487
-1.7814593003 0.1461076386 3.7486090453
-0.8530498033 0.5006150315 4.3063221035
-0.9303047981 0.4918289931 4.2649773301
-1.0467236760 0.4690067786 4.1903169869
-0.8704617226 0.5201137083 4.3236675208
-0.6269278701 0.5735779539 4.4843317191
-1.0957875299 0.4654312226 4.1662249697
-0.7224442868 0.5663816980 4.4386385627
-0.4912071191 0.6180195894 4.5907725958
-1.3553489742 0.3901043638 3.9665247022
-1.4021698544 0.3825328874 3.9377404132
-0.5950035999 0.6472560109 4.4041893869
-0.3640610933 0.6892772377 4.5446124400
-0.4300359912 0.6903482698 4.5202563055
-0.2509087497 0.7156253743 4.6191129564
-0.2357258533 0.7173826467 4.6269623539
-0.9632239347 0.5701055011 4.1618948509
-0.6393507834 0.6613072676 4.4032007718
-0.5538267382 0.6794424892 4.4587422003
-0.4076445085 0.7054282637 4.5467845662
-0.1030639234 0.7412658801 4.7050544888
-0.4886889611 0.7033751201 4.5127399318
-0.3245209966 0.7288446276 4.6065082463
-1.0844128484 0.5522778475 4.0895723644
-0.9825750635 0.5894929519 4.1771885554
-0.6981579677 0.6716866374 4.3919886051
-0.4960912366 0.7136490140 4.5219980434
-0.2081242124 0.7537138771 4.6801360777
-0.3071162114 0.7535967984 4.6423315561
-1.1914589444 0.5358304526 4.0242086616
-0.7713545658 0.6778179888 4.3697858935
-0.2358938094 0.7730030362 4.6922822184
-0.0456677998 0.7889365421 4.7822617751
0.1492076120 0.7968430567 4.8628669416
-0.1311549527 0.7937713084 4.7560991190
-1.2731858957 0.5274757673 3.9790334372
-0.1847243342 0.8001674055 4.7435046973
-0.1687761165 0.8015917968 4.7511701994
-0.0885089339 0.8078722922 4.7885288504
-0.0287895234 0.8224209645 4.8276836213
0.1528227711 0.8288342803 4.9014894833
-1.2705736325 0.5570123678 4.0161426803
-1.2336710677 0.5732525773 4.0516798929
-1.1581321076 0.6043845672 4.1215204838
-1.4463864548 0.4994354308 3.8696138515
-1.3527511122 0.5472685948 3.9688960763
0.1738576710 0.8609646428 4.9465367060
0.2078086995 0.8611689346 4.9589664108
0.3790176202 0.8587374900 5.0168869786
-0.3117832878 0.7951280548 4.5158915361
-0.1194711161 0.8215965878 4.6211045428
-0.0437985319 0.8293815342 4.6588879020
-0.4909252301 0.7731858720 4.4188552429
-0.4562279315 0.7924444770 4.4549936960
-0.1772071350 0.8375725146 4.6168929655
-0.0554153948 0.8507944845 4.6786558278
0.0164171248 0.8680390771 4.7253129528
0.1900720958 0.8776202686 4.8006276438
0.0424141352 0.8810207511 4.7497066112
-0.4210833592 0.8349841687 4.5177859305
-0.2420537651 0.8635747344 4.6211640554
-0.7544649120 0.7688821710 4.3048325462
-0.1719511102 0.8838453855 4.6713633801
0.1117272369 0.9072108293 4.8050030382
-0.2705436739 0.8827023114 4.6317515897
0.1391322636 0.9194769754 4.8289165918
-1.1214065656 0.6632991188 4.0228186729
-1.1092712316 0.6686105396 4.0344649434
-0.6040392486 0.8329850664 4.4412884482
0.1669567291 0.9315328168 4.8526910395
0.3815242668 0.9343765962 4.9333808057
-1.0952011806 0.6887055733 4.0643724905
-0.0482768161 0.9299416617 4.7707251585
-1.0427665277 0.7238839374 4.1287495640
0.2072773417 0.9546098864 4.8933322457
0.2904439153 0.9559972021 4.9249996710
0.3910904891 0.9557919319 4.9607320061
-0.9882016584 0.7580306939 4.1924703111
-1.0885259879 0.7331901639 4.1196519324
-0.9315294060 0.7911119619 4.2554799709
-1.3864261522 0.6202402864 3.8522130544
-1.1344926533 0.7421083385 4.1099465371
-1.1089666181 0.7525699100 4.1334665231
0.3084374050 0.9993413608 4.9800006250
-0.1168927657 0.9290943990 4.5439709143
0.0813678490 0.9741031279 4.6698708393
0.1121189654 0.9765587719 4.6842513970
0.1805423093 1.0379251900 4.7757801609
-0.1076946820 1.0242693717 4.6503928625
0.2842737059 1.0648255413 4.8429532282
-0.9681815776 0.8359179760 4.0765398301
0.0317717131 1.0732640879 4.7572671960
-0.7790728740 0.9311412529 4.2682160632
0.1722932907 1.0940803701 4.8327069768
0.6044124162 1.1076814877 5.0025680776
-0.9802059027 0.9011284017 4.1445677917
0.0202793723 1.0790994427 4.5422049175
-0.3872418873 1.0193250243 4.3098162056
-0.2901225170 1.0409239559 4.3742698432
-0.2976585183 1.0519974986 4.3824334542
0.2944981773 1.1378872248 4.7080679759
-0.6882220849 0.9863577980 4.1393127886
-0.0101550386 1.1356453627 4.5872358599
0.1905290258 1.1549427087 4.6855833401
-0.2407384001 1.1131805955 4.4694666075
0.4735666001 1.1778674208 4.8140204068
0.4168286244 1.2000864246 4.8155370895
-0.5383840807 1.1112595929 4.3384815100
0.4507143821 1.2465852096 4.8741350732
0.4133772781 1.2576266600 4.8715907527
0.4973925601 1.2582279639 4.9024810107
0.4768810992 1.2696754937 4.9065158598
0.2494457668 1.2203165670 4.5573780796
-0.1522185745 1.1793412907 4.3519389860
0.0585536637 1.2250666790 4.4848735956
0.3216932307 1.2740014047 4.6355956220
0.6069791999 1.2820458166 4.7487422426
0.2444631456 1.3051903700 4.6347552131
-0.7206497752 1.1177801141 4.0263299056
-0.4294101476 1.2092496057 4.2563266487
0.6097478870 1.3293530690 4.7933280648
0.6229121874 1.3410710235 4.8087877583
-0.7996984672 1.1308735680 3.9999551941
0.3369254677 1.3592926853 4.7207803701
0.6298909348 1.3764172069 4.8437966842
-0.0078695775 1.3536190271 4.5788704625
0.3499497706 1.3727857839 4.5369597370
0.5560781345 1.4189523259 4.6551704367
-0.5065577921 1.2693006340 4.0627909784
0.5044082356 1.4299815008 4.6455032840
-0.3124988616 1.3372826319 4.2193706797
-0.2139930633 1.3596756447 4.2854123851
-0.6996709329 1.2449707679 3.9411989229
0.2066572274 1.4489677507 4.5460333762
0.2692683709 1.4544285628 4.5759469592
0.3165859382 1.4579466385 4.5977165040
-0.6027354546 1.3092898269 4.0516432593
-0.4959119853 1.3431036557 4.1363663189
-0.3149201986 1.3909523332 4.2669288442
0.4683035062 1.4904934764 4.6840729495
0.3022871529 1.4944441475 4.6237551184
-0.6205013616 1.3320559930 4.0639034005
0.7432430982 1.5160593724 4.8049225791
0.0817727390 1.3782458144 4.2633574457
-0.1320707621 1.3515006335 4.1428673922
0.5165372291 1.4339509246 4.4883396147
0.2428021797 1.4259096114 4.3721385343
0.0630948690 1.4151354921 4.2858256837
0.1350527065 1.4257032591 4.3261065057
0.0568689123 1.4274320514 4.2933150963
0.3215539969 1.4595373855 4.4321767699
-0.2292095046 1.3841116122 4.1241840364
-0.1194286248 1.4088246129 4.1974505992
-0.0067351000 1.4302556656 4.2672463201
0.7351708157 1.4881484304 4.6123339557
0.8147244493 1.4868704375 4.6390434280
-0.3307074166 1.3717505461 4.0636747976
-0.0132304372 1.4425077510 4.2745781826
0.6054642648 1.4999349189 4.5749365990
0.7800510340 1.5000629448 4.6375854561
-0.4305596720 1.3566907896 4.0000433981
-0.4045748472 1.3646497848 4.0202862047
-0.3253526096 1.3873255546 4.0798164524
0.3832428231 1.5028603232 4.4922493381
0.4451168903 1.5066777911 4.5196393715
0.6653090276 1.5132573061 4.6074788960
0.8417128527 1.5110128003 4.6675154328
-0.5032744856 1.3476249439 3.9543650169
-0.4648545316 1.3602910203 3.9855303295
0.3786217585 1.5153361317 4.5005595229
-0.2731307183 1.4288732803 4.1412523248
-0.2038307079 1.4452572969 4.1885801462
0.2354149016 1.5159776244 4.4430055837
0.4993884133 1.5346496911 4.5631402442
0.5787062442 1.5371578011 4.5949716941
0.5946515433 1.5374962287 4.6011428184
0.6747629124 1.5383718895 4.6310134042
0.4006852988 1.5423320461 4.5311932354
0.7363500311 1.5506156110 4.6626958753
-0.4377161789 1.4119816601 4.0447462343
0.3962078381 1.5548172322 4.5395677015
0.4753776835 1.5589934813 4.5736400932
-0.5380901562 1.3944224152 3.9774910428
-0.4725906348 1.4156705408 4.0301476721
0.5315988387 1.5863777377 4.6170305255
0.6946325399 1.5884383684 4.6782028888
0.7110731288 1.5883394892 4.6839498934
-0.4355212012 1.4554925468 4.0837884278
0.4791722079 1.5971862856 4.6059416412
-0.5378157637 1.4382893785 4.0163356375
0.5076475828 1.6108922433 4.6277864108
0.1199906157 1.4331513066 4.2021181263
0.0379870189 1.4465347356 4.1755440844
-0.2380393085 1.3995592350 4.0043586689
0.1728229966 1.4811488674 4.2635742664
0.6026379351 1.5162098241 4.4655890984
0.3128325235 1.5108179384 4.3466556474
0.4169393097 1.5196940971 4.3961142366
0.5530398094 1.5273415539 4.4553315980
0.5491066201 1.5400708519 4.4636113446
0.5952064608 1.5416836351 4.4823251366
0.7632996951 1.5562773506 4.5547253168
-0.5235823680 1.3677111225 3.8271183431
0.0058110447 1.5088571056 4.2106454958
0.0917002577 1.5230244451 4.2608612690
0.4032046638 1.5577732595 4.4201115231
0.5567241697 1.5661253651 4.4865309481
0.6033410328 1.5675935820 4.5052309511
0.7130224352 1.5691540443 4.5466243395
0.7098919664 1.5819002797 4.5552146164
-0.3242716227 1.4617166750 4.0120729945
-0.2709450944 1.4761905968 4.0510583717
0.0153673774 1.5512495597 4.2489083543
-0.4143837980 1.4786206124 3.9796213951
-0.3210528111 1.5055488465 4.0500478704
-0.1410957935 1.5488888718 4.1740401724
0.0173915789 1.5786676129 4.2717015112
-0.2602979100 1.5354974538 4.1051537736
0.7592142848 1.6453421529 4.6210182131
-0.3229478920 1.5335549265 4.0722471900
-0.2954597158 1.5407527659 4.0919812620
-0.0098413850 1.6011996037 4.2773065712
0.1853005341 1.6290514826 4.3854344234
0.8549518368 1.6559993997 4.6621140575
-0.3168864232 1.5493775669 4.0883570741
0.6553408424 1.6709379670 4.6034119579
0.7864644089 1.6703541310 4.6495293747
0.8360070798 1.6692226048 4.6657013612
0.3318774677 1.4872719713 4.2635953275
0.3749450273 1.4914565933 4.2847606646
-0.1005979359 1.4300707707 4.0220117469
0.0337200935 1.4855338839 4.1300012735
0.0751567424 1.4928312130 4.1548633717
0.0890512411 1.4951629582 4.1630417092
0.4931398332 1.5397734826 4.3689826465
-0.3665445507 1.4001711975 3.8612182519
